3.104249954223633 -255.75900268554688 -1391.2900390625
-17.535200119018555 -257.6940002441406 -1390.9100341796875
-11.561400413513184 -259.0450134277344 -1390.0999755859375
-4.693260192871094 -259.2919921875 -1389.75
7.817840099334717 -252.10299682617188 -1389.260009765625
2.655669927597046 -253.92999267578125 -1388.8800048828125
-9.272049903869629 -257.67401123046875 -1387.699951171875
-16.598100662231445 -254.71099853515625 -1386.989990234375
-1.6225700378417969 -255.13299560546875 -1386.199951171875
-12.47719955444336 -254.24899291992188 -1384.5999755859375
-3.6040101051330566 -254.56100463867188 -1383.9300537109375
1.848639965057373 -250.4149932861328 -1383.300048828125
-33.227500915527344 -238.03900146484375 -1382.5
-16.609100341796875 -251.3209991455078 -1382.0799560546875
6.150259971618652 -247.4149932861328 -1382.18994140625
-8.900750160217285 -254.96200561523438 -1381.699951171875
-13.049599647521973 -251.343994140625 -1380.5
10.133199691772461 -240.8090057373047 -1379.300048828125
-20.125999450683594 -247.82200622558594 -1377.300048828125
-36.25299835205078 -237.11599731445312 -1377.2900390625
14.609100341796875 -237.12600708007812 -1377.300048828125
-22.964399337768555 -244.26699829101562 -1376.9000244140625
-24.075199127197266 -243.0749969482422 -1375.699951171875
-29.86720085144043 -239.41099548339844 -1375.7099609375
6.434969902038574 -244.42799377441406 -1373.300048828125
18.981599807739258 -236.34300231933594 -1372.9000244140625
-23.090900421142578 -243.94500732421875 -1372.0999755859375
39.46179962158203 -231.21200561523438 -1372.18994140625
32.50809860229492 -235.30099487304688 -1371.699951171875
9.934450149536133 -241.1820068359375 -1371.3199462890625
-21.20039939880371 -246.1269989013672 -1370.5
-28.780899047851562 -239.53199768066406 -1370.0999755859375
-34.913299560546875 -238.4600067138672 -1370.0999755859375
26.900400161743164 -236.1179962158203 -1370.0999755859375
47.160701751708984 -216.822998046875 -1369.699951171875
-50.01969909667969 -237.427001953125 -1368.9000244140625
-43.15510177612305 -238.71400451660156 -1368.5
44.895599365234375 -224.19900512695312 -1368.5
38.224098205566406 -232.7209930419922 -1368.0999755859375
42.39350128173828 -228.69200134277344 -1368.0999755859375
-52.87110137939453 -236.18899536132812 -1366.9000244140625
-24.9591007232666 -243.06700134277344 -1366.5
-36.28689956665039 -239.4499969482422 -1365.8199462890625
-41.78139877319336 -239.28900146484375 -1365.300048828125
33.310699462890625 -236.0800018310547 -1364.9000244140625
36.25510025024414 -234.4219970703125 -1364.0999755859375
-47.71780014038086 -239.4040069580078 -1362.8900146484375
46.19499969482422 -220.9429931640625 -1362.9000244140625
37.99919891357422 -232.96600341796875 -1362.5
38.21630096435547 -232.71499633789062 -1362.0999755859375
-53.97669982910156 -235.88800048828125 -1361.300048828125
34.794700622558594 -234.83599853515625 -1360.800048828125
41.89059829711914 -228.16099548339844 -1360.5
29.6476993560791 -236.41299438476562 -1360.2099609375
25.984600067138672 -237.427001953125 -1359.699951171875
11.343500137329102 -243.24899291992188 -1359.3299560546875
20.313100814819336 -239.54200744628906 -1359.449951171875
38.81480026245117 -230.6739959716797 -1358.47998046875
-42.23929977416992 -240.968994140625 -1358.1500244140625
-49.464698791503906 -238.65699768066406 -1358.0999755859375
-27.552499771118164 -242.3489990234375 -1357.699951171875
14.537699699401855 -240.97000122070312 -1357.81005859375
-37.660499572753906 -240.906005859375 -1357.4599609375
-33.70869827270508 -240.9029998779297 -1357.4599609375
7.3754801750183105 -244.9239959716797 -1356.9000244140625
-21.316299438476562 -245.3699951171875 -1356.4100341796875
-24.720800399780273 -242.78900146484375 -1356.22998046875
-47.7338981628418 -238.20700073242188 -1356.219970703125
42.372398376464844 -226.36399841308594 -1356.0999755859375
-53.21260070800781 -234.67599487304688 -1355.72998046875
8.256489753723145 -242.9219970703125 -1355.219970703125
11.779999732971191 -240.16799926757812 -1355.3800048828125
-18.29290008544922 -247.5 -1354.6099853515625
-22.600099563598633 -242.0570068359375 -1354.47998046875
8.283960342407227 -242.14700317382812 -1354.3699951171875
-50.93899917602539 -235.4759979248047 -1354.5999755859375
4.132609844207764 -247.0229949951172 -1352.9200439453125
5.992819786071777 -242.58399963378906 -1352.780029296875
-55.90039825439453 -230.572998046875 -1352.9300537109375
44.751399993896484 -222.31700134277344 -1352.9000244140625
-53.498600006103516 -231.74200439453125 -1351.06005859375
-56.771400451660156 -228.16400146484375 -1349.699951171875
42.784000396728516 -224.46200561523438 -1349.300048828125
2.9435999393463135 -247.49600219726562 -1348.5
-14.650300025939941 -245.21099853515625 -1348.5699462890625
3.5185699462890625 -243.3800048828125 -1348.5
-14.184599876403809 -248.87399291992188 -1348.1500244140625
-54.97060012817383 -229.09100341796875 -1347.699951171875
1.805109977722168 -251.16299438476562 -1346.0999755859375
-57.23820114135742 -225.89500427246094 -1345.699951171875
45.06209945678711 -221.71600341796875 -1345.699951171875
2.1588199138641357 -246.1269989013672 -1344.9000244140625
-12.119999885559082 -251.62100219726562 -1344.0999755859375
-57.09550094604492 -225.72300720214844 -1344.0999755859375
-11.324799537658691 -249.33200073242188 -1342.3299560546875
1.145050048828125 -245.6739959716797 -1342.0799560546875
-54.7322998046875 -227.51699829101562 -1342.0999755859375
0.03545499965548515 -251.62100219726562 -1341.219970703125
44.30870056152344 -223.23300170898438 -1340.5
-9.181429862976074 -253.91099548339844 -1339.7900390625
-56.768001556396484 -225.43099975585938 -1339.300048828125
-4.693260192871094 -254.44900512695312 -1338.7900390625
-8.976929664611816 -250.2480010986328 -1338.780029296875
-2.9264700412750244 -250.70599365234375 -1337.800048828125
-1.166890025138855 -246.1269989013672 -1337.81005859375
-4.693260192871094 -248.87399291992188 -1336.449951171875
-55.542198181152344 -226.43600463867188 -1333.300048828125
40.05070114135742 -228.60499572753906 -1331.300048828125
42.10749816894531 -224.11000061035156 -1329.739990234375
-53.141300201416016 -229.56399536132812 -1329.300048828125
-54.24150085449219 -227.33700561523438 -1327.719970703125
35.76300048828125 -228.88800048828125 -1325.5999755859375
38.643001556396484 -225.3719940185547 -1325.300048828125
-49.413299560546875 -231.3159942626953 -1325.02001953125
-51.39289855957031 -227.80099487304688 -1323.3199462890625
-45.7598991394043 -232.23399353027344 -1322.2099609375
-48.46540069580078 -229.0019989013672 -1321.06005859375
32.58369827270508 -229.3719940185547 -1320.77001953125
-3.7774999141693115 -244.4010009765625 -1320.5
-49.29119873046875 -227.54100036621094 -1320.3399658203125
37.104698181152344 -223.7989959716797 -1320.0999755859375
36.14799880981445 -224.59500122070312 -1319.2900390625
2.632810115814209 -244.2689971923828 -1318.5
28.5 -232.61599731445312 -1318.31005859375
-43.15850067138672 -231.93899536132812 -1318.5
35.940399169921875 -224.5050048828125 -1318.5
39.59980010986328 -219.92300415039062 -1318.5
-7.440529823303223 -244.3179931640625 -1317.699951171875
-8.814169883728027 -216.87399291992188 -1274.3900146484375
-17.513900756835938 -243.9149932861328 -1315.699951171875
8.127349853515625 -243.2259979248047 -1315.4100341796875
-22.96780014038086 -242.61700439453125 -1315.27001953125
-29.87660026550293 -240.1230010986328 -1315.300048828125
-37.06990051269531 -235.45700073242188 -1314.9000244140625
30.783100128173828 -228.9459991455078 -1314.72998046875
40.8031005859375 -216.9810028076172 -1314.9000244140625
25.061399459838867 -234.66799926757812 -1314.530029296875
-28.04509925842285 -241.20199584960938 -1314.0999755859375
34.01089859008789 -225.3070068359375 -1314.280029296875
-47.87820053100586 -224.74000549316406 -1314.0999755859375
-12.47719955444336 -243.79400634765625 -1313.699951171875
-44.24259948730469 -228.44200134277344 -1313.6300048828125
17.99519920349121 -239.51100158691406 -1313.47998046875
33.912200927734375 -225.2010040283203 -1313.300048828125
10.874600410461426 -241.17300415039062 -1312.0999755859375
27.940099716186523 -231.1540069580078 -1312.0999755859375
-14.581299781799316 -243.13499450683594 -1311.52001953125
-38.78710174560547 -232.6020050048828 -1311.530029296875
-48.782501220703125 -222.43699645996094 -1311.300048828125
37.9900016784668 -220.09300231933594 -1310.9000244140625
-19.345399856567383 -242.91299438476562 -1310.0999755859375
-34.13869857788086 -236.20599365234375 -1310.0999755859375
21.10759925842285 -235.77499389648438 -1310.0999755859375
-30.710399627685547 -238.6840057373047 -1309.699951171875
-24.371400833129883 -241.6750030517578 -1309.3199462890625
25.86949920654297 -232.26800537109375 -1309.300048828125
-26.978500366210938 -240.46800231933594 -1309.030029296875
-44.34479904174805 -226.7100067138672 -1308.969970703125
31.588899612426758 -227.0050048828125 -1308.5
12.285900115966797 -238.9739990234375 -1308.0899658203125
-40.275901794433594 -230.42799377441406 -1307.300048828125
-15.224499702453613 -241.406005859375 -1306.56005859375
-36.02190017700195 -233.5030059814453 -1306.5
-31.552499771118164 -236.34500122070312 -1305.780029296875
-19.803300857543945 -240.64700317382812 -1305.300048828125
-49.697601318359375 -218.74200439453125 -1305.300048828125
22.296600341796875 -233.44200134277344 -1304.8900146484375
28.255399703979492 -229.27699279785156 -1304.8900146484375
-25.118200302124023 -239.06100463867188 -1304.6600341796875
15.445899963378906 -236.6739959716797 -1304.0799560546875
-45.56529998779297 -223.32400512695312 -1302.9000244140625
-15.68239974975586 -240.19700622558594 -1301.699951171875
-37.88460159301758 -230.7830047607422 -1301.510009765625
-23.93320083618164 -238.2259979248047 -1300.9100341796875
7.709780216217041 -238.24099731445312 -1300.8699951171875
-30.792400360107422 -235.1540069580078 -1300.9000244140625
-23.494400024414062 -238.25100708007812 -1300.47998046875
36.655399322509766 -218.7429962158203 -1300.5
-18.34309959411621 -239.0959930419922 -1299.0
-17.513900756835938 -239.24899291992188 -1298.9000244140625
-3.2779901027679443 -212.677001953125 -1271.97998046875
-48.28889846801758 -216.80299377441406 -1298.0999755859375
-44.260398864746094 -222.04600524902344 -1297.1600341796875
11.816499710083008 -235.48899841308594 -1296.8900146484375
-43.34769821166992 -222.9669952392578 -1296.75
26.352500915527344 -228.16099548339844 -1296.5
1.2591700553894043 -237.46099853515625 -1296.0999755859375
-35.9005012512207 -229.77200317382812 -1295.699951171875
-8.356289863586426 -237.7469940185547 -1294.949951171875
-6.5247697830200195 -237.74600219726562 -1294.9599609375
-28.948699951171875 -233.43499755859375 -1294.9100341796875
-14.279399871826172 -237.28900146484375 -1294.489990234375
-20.7189998626709 -236.06300354003906 -1294.0999755859375
34.99150085449219 -216.24400329589844 -1294.199951171875
-44.31740188598633 -219.35699462890625 -1293.8900146484375
15.458000183105469 -232.51199340820312 -1292.9000244140625
20.40730094909668 -229.95899963378906 -1292.5899658203125
26.163799285888672 -225.2449951171875 -1291.949951171875
15.88129997253418 -230.9080047607422 -1290.9100341796875
8.127349853515625 -233.59800720214844 -1290.6400146484375
-1.0302200317382812 -234.81399536132812 -1289.6500244140625
-45.077701568603516 -213.18299865722656 -1289.68994140625
28.113800048828125 -220.33099365234375 -1289.43994140625
-9.272049903869629 -234.72900390625 -1288.9000244140625
6.301249980926514 -232.7790069580078 -1288.8900146484375
-37.2411003112793 -222.82400512695312 -1288.4599609375
-26.248199462890625 -230.5800018310547 -1288.0799560546875
21.192399978637695 -225.30799865722656 -1288.2900390625
28.424100875854492 -216.9250030517578 -1287.56005859375
12.706100463867188 -228.8730010986328 -1287.199951171875
-29.693700790405273 -227.6269989013672 -1287.0699462890625
-39.749298095703125 -217.5399932861328 -1287.0799560546875
29.4960994720459 -214.41200256347656 -1287.0400390625
-16.140199661254883 -232.28399658203125 -1286.5999755859375
-0.11446700245141983 -231.61199951171875 -1285.6099853515625
-20.7189998626709 -230.2010040283203 -1285.5999755859375
18.658599853515625 -222.88099670410156 -1285.1700439453125
-5.151130199432373 -231.32699584960938 -1284.6400146484375
3.5485599040985107 -229.30999755859375 -1284.010009765625
6.295839786529541 -228.3300018310547 -1284.030029296875
22.3218994140625 -217.2760009765625 -1283.77001953125
-27.16950035095215 -224.17999267578125 -1283.2900390625
8.437159538269043 -226.26699829101562 -1283.050048828125
17.968700408935547 -217.96400451660156 -1281.9100341796875
-35.162200927734375 -215.23800659179688 -1282.280029296875
-12.935099601745605 -227.54299926757812 -1281.5400390625
10.557600021362305 -222.94500732421875 -1281.550048828125
10.910200119018555 -222.78500366210938 -1281.5899658203125
11.816800117492676 -222.33599853515625 -1281.68994140625
10.409700393676758 -222.78500366210938 -1281.3699951171875
10.137399673461914 -222.51100158691406 -1281.1300048828125
10.41670036315918 -222.43699645996094 -1281.1700439453125
10.888400077819824 -222.33099365234375 -1281.2900390625
11.332500457763672 -222.23699951171875 -1281.4000244140625
11.637200355529785 -222.14700317382812 -1281.449951171875
10.995599746704102 -222.02000427246094 -1281.1500244140625
11.355299949645996 -221.86399841308594 -1281.199951171875
11.79010009765625 -221.875 -1281.3599853515625
13.611000061035156 -220.4770050048828 -1281.2900390625
-4.693260192871094 -227.0290069580078 -1280.7900390625
10.690299987792969 -222.1300048828125 -1281.0699462890625
-28.4783992767334 -218.64599609375 -1280.5999755859375
3.5485599040985107 -224.32000732421875 -1279.949951171875
-1.4881000518798828 -225.4459991455078 -1279.780029296875
-18.45560073852539 -222.76800537109375 -1279.5899658203125
-27.29949951171875 -216.53900146484375 -1279.1400146484375
-6.5247697830200195 -224.24899291992188 -1278.7900390625
-10.187800407409668 -223.82899475097656 -1278.780029296875
-13.049300193786621 -222.51199340820312 -1278.3299560546875
16.855899810791016 -212.73199462890625 -1278.5400390625
1.2302099466323853 -222.2779998779297 -1278.030029296875
10.41670036315918 -216.9530029296875 -1277.949951171875
-6.982649803161621 -220.8280029296875 -1276.6199951171875
7.899479866027832 -215.6790008544922 -1276.300048828125
-1.4881000518798828 -216.73599243164062 -1274.2099609375
-17.09429931640625 -215.90699768066406 -1275.5799560546875
-12.503499984741211 -217.26499938964844 -1275.1800537109375
