37.1781005859375 -233.51300048828125 -1366.5
40.51539993286133 -230.4340057373047 -1365.300048828125
44.42390060424805 -225.093994140625 -1365.300048828125
31.021299362182617 -237.0240020751953 -1363.699951171875
23.6387996673584 -239.1179962158203 -1362.5
35.174598693847656 -235.03399658203125 -1362.1099853515625
40.263099670410156 -230.6060028076172 -1362.0999755859375
44.48820114135742 -224.32400512695312 -1361.699951171875
44.64509963989258 -224.09500122070312 -1361.699951171875
33.45859909057617 -235.76600646972656 -1361.22998046875
31.26490020751953 -236.75599670410156 -1361.0899658203125
20.947999954223633 -239.73599243164062 -1360.5
27.234600067138672 -237.7259979248047 -1360.239990234375
36.82279968261719 -233.14500427246094 -1360.22998046875
43.04439926147461 -226.39599609375 -1360.1300048828125
-43.612998962402344 -241.04100036621094 -1359.699951171875
-37.202701568603516 -241.93899536132812 -1359.300048828125
-47.32080078125 -240.05299377441406 -1359.27001953125
-30.532899856567383 -242.2209930419922 -1358.719970703125
15.911299705505371 -241.10699462890625 -1358.9000244140625
-20.452800750732422 -247.23300170898438 -1358.0999755859375
-28.861299514770508 -242.28900146484375 -1358.25
-40.407798767089844 -241.08999633789062 -1358.0999755859375
-48.8911018371582 -239.04299926757812 -1358.2900390625
-52.67319869995117 -236.406005859375 -1358.0999755859375
10.874600410461426 -242.9459991455078 -1357.699951171875
-45.902400970458984 -240.05099487304688 -1357.77001953125
40.935298919677734 -228.5679931640625 -1357.699951171875
-34.45539855957031 -240.99600219726562 -1357.3599853515625
-42.697200775146484 -240.30099487304688 -1357.219970703125
-22.887500762939453 -244.59100341796875 -1356.9000244140625
45.64680099487305 -220.9429931640625 -1356.9000244140625
7.549479961395264 -244.62100219726562 -1356.5
-24.54960060119629 -243.09500122070312 -1356.3599853515625
-54.77259826660156 -233.47799682617188 -1356.4100341796875
12.461199760437012 -240.38699340820312 -1355.9200439453125
-51.53269958496094 -236.22300720214844 -1356.0999755859375
44.12080001831055 -223.968994140625 -1356.0999755859375
-25.986799240112305 -240.86300659179688 -1355.5
42.00529861450195 -226.42799377441406 -1354.9300537109375
-21.316299438476562 -243.48500061035156 -1354.3599853515625
-53.940101623535156 -233.55799865722656 -1354.6800537109375
9.50098991394043 -240.2899932861328 -1353.969970703125
-18.15049934387207 -245.3419952392578 -1353.1500244140625
-57.540199279785156 -228.45700073242188 -1352.7900390625
-16.48069953918457 -248.41600036621094 -1352.1700439453125
42.531898498535156 -225.125 -1352.0999755859375
4.043280124664307 -245.21099853515625 -1351.300048828125
-53.80390167236328 -231.63900756835938 -1351.219970703125
42.58720016479492 -224.71800231933594 -1350.0999755859375
3.0625600814819336 -248.41600036621094 -1349.699951171875
-56.721099853515625 -228.09800720214844 -1349.4100341796875
3.736069917678833 -242.1790008544922 -1348.75
-14.388099670410156 -248.87399291992188 -1348.5
45.05009841918945 -221.69700622558594 -1348.5
-14.005900382995605 -242.9080047607422 -1346.9100341796875
-54.78850173950195 -228.91600036621094 -1346.780029296875
-55.17060089111328 -228.38499450683594 -1346.0999755859375
-13.180500030517578 -249.51800537109375 -1345.8900146484375
42.96730041503906 -224.06500244140625 -1345.699951171875
2.344290018081665 -244.7530059814453 -1345.2099609375
-57.43040084838867 -225.47900390625 -1344.93994140625
1.6191799640655518 -248.41600036621094 -1344.0999755859375
-12.141200065612793 -245.21499633789062 -1344.1099853515625
-11.8858003616333 -250.67599487304688 -1343.6800537109375
-13.126799583435059 -241.28399658203125 -1342.760009765625
-55.86940002441406 -226.781005859375 -1342.5
44.026798248291016 -223.41400146484375 -1342.0999755859375
0.6644260287284851 -249.7899932861328 -1341.7900390625
45.25389862060547 -220.9429931640625 -1340.9000244140625
-0.6800299882888794 -250.70599365234375 -1339.760009765625
-10.135199546813965 -245.66900634765625 -1339.699951171875
-54.94269943237305 -227.2220001220703 -1339.699951171875
-8.980030059814453 -252.9949951171875 -1339.1600341796875
-9.611490249633789 -249.33200073242188 -1339.3800048828125
-5.609010219573975 -254.31300354003906 -1338.5899658203125
-2.389539957046509 -252.51499938964844 -1338.56005859375
-56.84489822387695 -225.06399536132812 -1338.0999755859375
-9.774399757385254 -242.00599670410156 -1337.699951171875
-7.058410167694092 -249.7899932861328 -1337.18994140625
-1.762969970703125 -246.24600219726562 -1337.1500244140625
-3.015120029449463 -247.95799255371094 -1336.6400146484375
-1.3473000526428223 -241.97500610351562 -1336.1300048828125
-4.235380172729492 -247.34100341796875 -1335.8499755859375
-6.408669948577881 -246.92999267578125 -1335.8299560546875
43.659000396728516 -224.427001953125 -1335.699951171875
-55.95920181274414 -225.97999572753906 -1334.5
-3.768620014190674 -243.83599853515625 -1333.300048828125
-8.03557014465332 -242.1479949951172 -1333.300048828125
-10.66670036315918 -239.6529998779297 -1332.8900146484375
-3.7676401138305664 -243.28900146484375 -1332.489990234375
41.17890167236328 -227.79200744628906 -1332.489990234375
-53.83290100097656 -228.88800048828125 -1331.699951171875
-2.275019884109497 -241.6909942626953 -1331.300048828125
42.230098724365234 -225.28199768066406 -1331.1099853515625
37.813899993896484 -230.44700622558594 -1330.9000244140625
-51.99330139160156 -230.70899963378906 -1329.300048828125
40.3583984375 -226.60800170898438 -1329.1600341796875
-5.609010219573975 -241.57200622558594 -1328.9000244140625
-12.01930046081543 -241.39300537109375 -1328.4100341796875
0.34341201186180115 -242.32699584960938 -1328.0400390625
36.66790008544922 -229.80099487304688 -1328.0
32.394901275634766 -232.44200134277344 -1327.699951171875
-48.23609924316406 -232.97900390625 -1327.300048828125
-3.7008299827575684 -243.10699462890625 -1326.6199951171875
3.3938300609588623 -242.2830047607422 -1326.3599853515625
34.68619918823242 -230.0019989013672 -1325.739990234375
39.3927001953125 -224.69400024414062 -1325.699951171875
-15.683300018310547 -241.197998046875 -1325.300048828125
-48.777000427246094 -232.07400512695312 -1325.300048828125
9.87771987915039 -240.4759979248047 -1324.4000244140625
-44.11130142211914 -234.36300659179688 -1324.5
29.189800262451172 -233.31500244140625 -1324.5
-11.561400413513184 -243.31900024414062 -1324.0999755859375
-4.235380172729492 -244.11099243164062 -1323.1800537109375
16.291400909423828 -238.6510009765625 -1323.219970703125
-40.865699768066406 -235.16200256347656 -1323.300048828125
-52.49089813232422 -226.11500549316406 -1323.1800537109375
23.101999282836914 -236.3560028076172 -1322.9000244140625
35.157501220703125 -227.8300018310547 -1322.8800048828125
1.7080299854278564 -244.1269989013672 -1322.469970703125
7.9559102058410645 -242.2689971923828 -1321.969970703125
-48.843299865722656 -229.37899780273438 -1321.949951171875
8.57804012298584 -242.14599609375 -1321.699951171875
-41.819801330566406 -234.59800720214844 -1321.6700439453125
26.480300903320312 -234.80099487304688 -1321.300048828125
-44.5260009765625 -232.3040008544922 -1320.9300537109375
30.524900436401367 -231.42799377441406 -1320.9000244140625
-4.235380172729492 -244.38400268554688 -1320.5
-17.98189926147461 -242.3300018310547 -1320.469970703125
-10.187800407409668 -244.36599731445312 -1320.0999755859375
15.721199989318848 -240.42999267578125 -1319.93994140625
-27.628599166870117 -239.4320068359375 -1319.7099609375
-37.16939926147461 -236.18499755859375 -1319.719970703125
33.908199310302734 -227.47300720214844 -1319.699951171875
36.80780029296875 -223.98699951171875 -1319.699951171875
21.447799682617188 -238.01600646972656 -1319.300048828125
3.0906898975372314 -244.25900268554688 -1318.9000244140625
-33.53960037231445 -237.78599548339844 -1318.5
-43.85060119628906 -231.25399780273438 -1318.2900390625
-12.935099601745605 -244.2790069580078 -1317.699951171875
-40.122100830078125 -233.94200134277344 -1317.5999755859375
-47.84410095214844 -226.906005859375 -1317.6700439453125
-52.710899353027344 -220.0279998779297 -1317.699951171875
13.233599662780762 -242.1649932861328 -1317.300048828125
-7.898409843444824 -244.12399291992188 -1317.0400390625
-0.5723459720611572 -243.7790069580078 -1316.9000244140625
-47.582298278808594 -226.75100708007812 -1317.010009765625
7.669469833374023 -243.51100158691406 -1316.5
19.093399047851562 -239.61000061035156 -1316.5
40.72999954223633 -217.71600341796875 -1316.510009765625
-3.7372899055480957 -243.54600524902344 -1316.1300048828125
25.625200271606445 -234.78199768066406 -1316.0999755859375
34.84510040283203 -224.76300048828125 -1316.0999755859375
-21.150999069213867 -243.2270050048828 -1315.300048828125
-6.982649803161621 -243.45899963378906 -1315.300048828125
-25.780799865722656 -241.7270050048828 -1315.3399658203125
-42.09080123901367 -231.3209991455078 -1315.3800048828125
-12.059100151062012 -243.9709930419922 -1314.5400390625
-53.39440155029297 -217.4029998779297 -1314.5
-17.513900756835938 -244.27200317382812 -1314.0999755859375
-34.867698669433594 -236.88800048828125 -1314.0999755859375
28.164899826049805 -231.36599731445312 -1313.699951171875
37.10179901123047 -221.50399780273438 -1313.699951171875
-30.99209976196289 -239.46200561523438 -1313.300048828125
20.944499969482422 -237.51800537109375 -1313.300048828125
31.097999572753906 -228.2480010986328 -1313.280029296875
-26.598100662231445 -241.875 -1312.9000244140625
15.911299705505371 -240.20899963378906 -1312.9000244140625
33.661598205566406 -225.41400146484375 -1312.9000244140625
-41.66939926147461 -230.44000244140625 -1312.5
2.632810115814209 -242.0240020751953 -1312.0999755859375
-45.27899932861328 -226.7310028076172 -1312.199951171875
9.316410064697266 -241.33900451660156 -1311.8800048828125
-21.63479995727539 -243.09300231933594 -1311.22998046875
-12.47719955444336 -242.81300354003906 -1311.3299560546875
14.07979965209961 -239.7449951171875 -1310.9000244140625
-50.37779998779297 -220.4040069580078 -1310.9000244140625
37.9900016784668 -220.09300231933594 -1310.9000244140625
23.3794002532959 -234.38400268554688 -1310.5
-20.7189998626709 -242.65499877929688 -1309.949951171875
7.211599826812744 -240.70399475097656 -1310.0999755859375
-33.26679992675781 -236.7010040283203 -1309.5999755859375
20.944000244140625 -235.72900390625 -1309.6800537109375
-28.219999313354492 -239.91000366210938 -1309.1600341796875
30.018299102783203 -228.64500427246094 -1309.300048828125
-16.598100662231445 -242.33200073242188 -1308.97998046875
-36.03459930419922 -233.9709930419922 -1308.3499755859375
-43.551700592041016 -227.31399536132812 -1308.0999755859375
32.93790054321289 -225.59500122070312 -1308.0999755859375
-48.83470153808594 -221.125 -1308.0999755859375
15.45259952545166 -237.7570037841797 -1307.739990234375
25.489299774169922 -232.01699829101562 -1307.3299560546875
-40.017601013183594 -230.65699768066406 -1307.300048828125
-22.276599884033203 -240.84500122070312 -1306.719970703125
19.883499145507812 -235.44000244140625 -1306.969970703125
-41.65729904174805 -229.0570068359375 -1306.9000244140625
-26.67140007019043 -239.28900146484375 -1306.5
9.982290267944336 -239.14199829101562 -1306.489990234375
-28.14150047302246 -238.50999450683594 -1306.4300537109375
-32.582698822021484 -235.6490020751953 -1305.739990234375
-38.29750061035156 -231.65899658203125 -1305.699951171875
-17.513900756835938 -240.93800354003906 -1305.3900146484375
23.62179946899414 -232.73899841308594 -1305.300048828125
-42.97740173339844 -227.177001953125 -1304.9000244140625
-13.850799560546875 -241.03799438476562 -1304.5
13.621899604797363 -237.4250030517578 -1304.0999755859375
-20.26919937133789 -239.87600708007812 -1303.699951171875
-24.278400421142578 -238.63400268554688 -1302.5699462890625
-28.960800170898438 -236.50100708007812 -1302.0999755859375
-34.42879867553711 -233.41000366210938 -1302.1099853515625
5.8379597663879395 -242.8459930419922 -1301.699951171875
-16.140199661254883 -240.1750030517578 -1301.699951171875
-20.7189998626709 -239.2729949951172 -1301.300048828125
