34.52050018310547 -226.27200317382812 -1318.5999755859375
34.696800231933594 -225.98399353027344 -1318.5
34.87300109863281 -225.7050018310547 -1318.3900146484375
35.06779861450195 -225.54100036621094 -1318.52001953125
39.177799224853516 -220.4149932861328 -1318.5
-6.066889762878418 -244.322998046875 -1318.0999755859375
-13.540900230407715 -244.04299926757812 -1318.0999755859375
-2.403860092163086 -244.04800415039062 -1317.93994140625
-1.9459799528121948 -244.04400634765625 -1317.949951171875
-1.4881000518798828 -244.03900146484375 -1317.9599609375
-1.131850004196167 -244.04800415039062 -1317.93994140625
7.195580005645752 -243.66600036621094 -1318.0799560546875
7.478419780731201 -243.625 -1317.9300537109375
9.958869934082031 -243.02699279785156 -1318.0999755859375
12.41919994354248 -242.20799255371094 -1318.25
12.715399742126465 -242.156005859375 -1318.1099853515625
13.178199768066406 -241.89999389648438 -1318.0699462890625
13.398200035095215 -241.77999877929688 -1317.9100341796875
-26.207500457763672 -240.50999450683594 -1318.0999755859375
-25.755699157714844 -240.6529998779297 -1318.0999755859375
-25.304800033569336 -240.7790069580078 -1318.1099853515625
-31.28030014038086 -238.69400024414062 -1318.1300048828125
-30.792400360107422 -238.86900329589844 -1318.0999755859375
-30.4512996673584 -238.98199462890625 -1318.0999755859375
-33.53960037231445 -237.8350067138672 -1318.0999755859375
27.310400009155273 -233.6959991455078 -1318.0999755859375
28.00040054321289 -233.03500366210938 -1318.0999755859375
-46.220401763916016 -229.0469970703125 -1318.1700439453125
-45.94660186767578 -229.2259979248047 -1318.0400390625
-45.663299560546875 -229.40499877929688 -1317.9100341796875
32.26430130004883 -228.5989990234375 -1318.0999755859375
34.60319900512695 -225.9149932861328 -1318.0999755859375
34.83209991455078 -225.64999389648438 -1318.0999755859375
35.02619934082031 -225.42100524902344 -1318.0999755859375
39.1239013671875 -220.3489990234375 -1318.0999755859375
-6.5247697830200195 -244.29600524902344 -1317.699951171875
-0.8265950083732605 -244.07200622558594 -1317.8900146484375
-0.7173410058021545 -244.07200622558594 -1317.8900146484375
-13.872900009155273 -244.02999877929688 -1317.72998046875
-2.403860092163086 -243.9709930419922 -1317.699951171875
-0.5677670240402222 -244.01300048828125 -1317.739990234375
-0.14308400452136993 -244.01300048828125 -1317.72998046875
0.34341201186180115 -244.0050048828125 -1317.6600341796875
7.57459020614624 -243.64999389648438 -1317.699951171875
9.043109893798828 -243.37600708007812 -1317.699951171875
9.536789894104004 -243.24899291992188 -1317.72998046875
9.713279724121094 -243.1439971923828 -1317.8800048828125
13.579299926757812 -241.8780059814453 -1317.7099609375
13.972900390625 -241.83999633789062 -1317.5799560546875
-26.68079948425293 -240.5070037841797 -1317.699951171875
-28.053300857543945 -240.0399932861328 -1317.699951171875
-27.587200164794922 -240.17799377441406 -1317.699951171875
-27.113100051879883 -240.31500244140625 -1317.699951171875
-29.344200134277344 -239.57000732421875 -1317.699951171875
-28.960800170898438 -239.72300720214844 -1317.699951171875
-28.495100021362305 -239.86900329589844 -1317.699951171875
-30.366100311279297 -239.15499877929688 -1317.719970703125
-29.87660026550293 -239.3470001220703 -1317.699951171875
-29.57309913635254 -239.4530029296875 -1317.699951171875
-33.53960037231445 -237.9010009765625 -1317.699951171875
24.57200050354004 -236.14300537109375 -1317.68994140625
24.898399353027344 -235.88299560546875 -1317.699951171875
27.258699417114258 -233.6580047607422 -1317.699951171875
27.953500747680664 -232.98599243164062 -1317.699951171875
-45.60430145263672 -229.35299682617188 -1317.699951171875
31.947200775146484 -228.74000549316406 -1317.68994140625
34.33449935913086 -226.06900024414062 -1317.699951171875
34.97359848022461 -225.35699462890625 -1317.800048828125
35.147701263427734 -225.06700134277344 -1317.699951171875
35.321800231933594 -224.78199768066406 -1317.6099853515625
39.070098876953125 -220.29299926757812 -1317.8499755859375
39.195499420166016 -220.0500030517578 -1317.7099609375
-7.448699951171875 -244.17599487304688 -1317.280029296875
-6.982649803161621 -244.1739959716797 -1317.3399658203125
-14.312700271606445 -244.02200317382812 -1317.31005859375
-2.8617401123046875 -243.9080047607422 -1317.300048828125
0.34341201186180115 -243.91099548339844 -1317.300048828125
7.637939929962158 -243.66600036621094 -1317.300048828125
7.866879940032959 -243.5989990234375 -1317.300048828125
8.127349853515625 -243.53799438476562 -1317.300048828125
8.585229873657227 -243.45399475097656 -1317.300048828125
14.054400444030762 -241.88099670410156 -1317.300048828125
14.283300399780273 -241.76199340820312 -1317.300048828125
-33.53960037231445 -237.9530029296875 -1317.300048828125
24.350200653076172 -236.25 -1317.300048828125
24.865999221801758 -235.8520050048828 -1317.43994140625
25.078100204467773 -235.60800170898438 -1317.280029296875
25.290199279785156 -235.35899353027344 -1317.1199951171875
27.207700729370117 -233.61399841308594 -1317.300048828125
27.907699584960938 -232.9239959716797 -1317.300048828125
28.114999771118164 -232.69500732421875 -1317.300048828125
-43.080299377441406 -231.38299560546875 -1317.300048828125
-42.82320022583008 -231.61199951171875 -1317.300048828125
-43.559600830078125 -230.94900512695312 -1317.300048828125
-43.30929946899414 -231.17799377441406 -1317.300048828125
-43.78860092163086 -230.73899841308594 -1317.300048828125
-45.47869873046875 -229.21200561523438 -1317.260009765625
31.64699935913086 -228.89199829101562 -1317.300048828125
33.87269973754883 -226.42599487304688 -1317.27001953125
34.049800872802734 -226.26499938964844 -1317.3900146484375
35.28219985961914 -224.72999572753906 -1317.300048828125
35.48540115356445 -224.50100708007812 -1317.300048828125
39.167701721191406 -219.94900512695312 -1317.300048828125
-14.312700271606445 -244.13800048828125 -1316.9200439453125
-8.374239921569824 -244.16200256347656 -1316.9000244140625
-7.898409843444824 -244.12399291992188 -1317.0400390625
-3.31961989402771 -243.86300659179688 -1316.9000244140625
0.34341201186180115 -243.82000732421875 -1316.9000244140625
7.414480209350586 -243.5989990234375 -1316.72998046875
7.6971001625061035 -243.57899475097656 -1316.8800048828125
8.127349853515625 -243.5070037841797 -1316.9000244140625
14.303500175476074 -241.7729949951172 -1316.9000244140625
14.537699699401855 -241.677001953125 -1316.9000244140625
-33.5015983581543 -238.01499938964844 -1316.9000244140625
24.07550048828125 -236.41700744628906 -1316.9000244140625
25.257299423217773 -235.3249969482422 -1316.9000244140625
25.551599502563477 -235.07200622558594 -1316.9200439453125
25.720800399780273 -234.875 -1316.800048828125
27.163400650024414 -233.56900024414062 -1317.0400390625
27.10059928894043 -233.50599670410156 -1316.780029296875
28.068599700927734 -232.64599609375 -1317.0699462890625
28.2593994140625 -232.3730010986328 -1316.949951171875
-42.527000427246094 -231.75999450683594 -1317.030029296875
-42.23569869995117 -231.9320068359375 -1316.9100341796875
-41.95309829711914 -232.10299682617188 -1316.800048828125
28.45009994506836 -232.1060028076172 -1316.8299560546875
-43.95199966430664 -230.42999267578125 -1316.9000244140625
-45.386600494384766 -229.1020050048828 -1316.9000244140625
31.366899490356445 -229.0749969482422 -1316.9000244140625
33.06079864501953 -227.10299682617188 -1316.739990234375
33.32210159301758 -226.8979949951172 -1316.9000244140625
33.567501068115234 -226.6929931640625 -1317.06005859375
35.436100006103516 -224.4429931640625 -1316.969970703125
35.62369918823242 -224.1699981689453 -1316.8599853515625
35.81129837036133 -223.9010009765625 -1316.75
39.13750076293945 -219.90499877929688 -1316.9000244140625
-14.766599655151367 -244.19500732421875 -1316.5
-9.247389793395996 -244.1719970703125 -1316.469970703125
-8.814169883728027 -244.13499450683594 -1316.5899658203125
-3.31961989402771 -243.7209930419922 -1316.530029296875
0.34341201186180115 -243.68499755859375 -1316.6199951171875
6.714399814605713 -243.67599487304688 -1316.489990234375
7.109220027923584 -243.6540069580078 -1316.6099853515625
-3.5578699111938477 -243.60699462890625 -1316.300048828125
0.34341201186180115 -243.54299926757812 -1316.4200439453125
0.8012909889221191 -243.5500030517578 -1316.4000244140625
1.2591700553894043 -243.55299377441406 -1316.3800048828125
1.7170499563217163 -243.55999755859375 -1316.3699951171875
2.1749300956726074 -243.57200622558594 -1316.3499755859375
2.632810115814209 -243.5760040283203 -1316.3399658203125
3.0906898975372314 -243.5850067138672 -1316.3299560546875
3.374350070953369 -243.59800720214844 -1316.3199462890625
8.127349853515625 -243.46099853515625 -1316.5
14.537699699401855 -241.67599487304688 -1316.5
14.995499610900879 -241.5240020751953 -1316.5
-33.33620071411133 -238.13800048828125 -1316.5
24.025999069213867 -236.37899780273438 -1316.5
25.67970085144043 -234.83399963378906 -1316.5
25.914100646972656 -234.60499572753906 -1316.5
26.14299964904785 -234.38099670410156 -1316.5
26.374399185180664 -234.15199279785156 -1316.5
26.6033992767334 -233.92599487304688 -1316.5
26.82900047302246 -233.69700622558594 -1316.5
27.058000564575195 -233.46400451660156 -1316.5
27.28339958190918 -233.23500061035156 -1316.5
27.512300491333008 -232.99600219726562 -1316.5
27.72800064086914 -232.76699829101562 -1316.5
-41.64780044555664 -232.2519989013672 -1316.5699462890625
-41.36389923095703 -232.43299865722656 -1316.43994140625
-41.089698791503906 -232.61399841308594 -1316.31005859375
27.957000732421875 -232.52499389648438 -1316.5
28.171300888061523 -232.29600524902344 -1316.5
28.40019989013672 -232.05099487304688 -1316.5
28.618900299072266 -231.82200622558594 -1316.5
-43.885398864746094 -230.3719940185547 -1316.6600341796875
-44.07400131225586 -230.1020050048828 -1316.510009765625
-44.262699127197266 -229.83599853515625 -1316.3599853515625
-45.2932014465332 -229.0260009765625 -1316.6099853515625
-45.00339889526367 -229.2050018310547 -1316.47998046875
-44.72669982910156 -229.38400268554688 -1316.3499755859375
31.103200912475586 -229.17799377441406 -1316.47998046875
32.7681999206543 -227.3699951171875 -1316.5400390625
33.025699615478516 -227.06300354003906 -1316.5
35.77470016479492 -223.86099243164062 -1316.5
35.97010040283203 -223.6320037841797 -1316.5
36.199100494384766 -223.35499572753906 -1316.5
36.394500732421875 -223.12600708007812 -1316.5
36.6234016418457 -222.83700561523438 -1316.5
36.80979919433594 -222.60800170898438 -1316.5
39.089698791503906 -219.85400390625 -1316.5899658203125
39.21860122680664 -219.60800170898438 -1316.47998046875
-15.224499702453613 -244.2050018310547 -1316.0999755859375
-9.774760246276855 -244.13499450683594 -1316.1099853515625
6.295839786529541 -243.625 -1316.280029296875
-3.7372899055480957 -243.54600524902344 -1316.1300048828125
3.5356099605560303 -243.531005859375 -1316.1300048828125
4.006440162658691 -243.5260009765625 -1316.050048828125
4.464320182800293 -243.53199768066406 -1316.030029296875
4.9222002029418945 -243.52999877929688 -1316.030029296875
5.380080223083496 -243.53599548339844 -1316.06005859375
5.8379597663879395 -243.53700256347656 -1316.0699462890625
8.127349853515625 -243.41400146484375 -1316.0999755859375
14.995499610900879 -241.51100158691406 -1316.0999755859375
-33.35049819946289 -238.1510009765625 -1316.0999755859375
23.707300186157227 -236.52099609375 -1316.0799560546875
26.99970054626465 -233.39700317382812 -1316.0999755859375
-40.81370162963867 -232.7729949951172 -1316.0999755859375
-40.550498962402344 -233.0019989013672 -1316.0999755859375
28.56399917602539 -231.76400756835938 -1316.2099609375
28.754499435424805 -231.49400329589844 -1316.0699462890625
28.945100784301758 -231.22999572753906 -1315.9300537109375
-44.209800720214844 -229.7830047607422 -1316.0999755859375
-44.67259979248047 -229.3350067138672 -1316.0999755859375
30.940799713134766 -229.2030029296875 -1316.1400146484375
32.534000396728516 -227.48599243164062 -1316.0999755859375
32.75120162963867 -227.2570037841797 -1316.0999755859375
36.75790023803711 -222.5590057373047 -1316.280029296875
36.886600494384766 -222.343994140625 -1316.1300048828125
37.1411018371582 -222.0240020751953 -1316.0999755859375
37.34349822998047 -221.7949981689453 -1316.0999755859375
37.5723991394043 -221.5229949951172 -1316.0999755859375
37.7760009765625 -221.29400634765625 -1316.0999755859375
38.005001068115234 -221.03700256347656 -1316.0999755859375
39.17649841308594 -219.52099609375 -1316.0999755859375
-10.659799575805664 -244.14999389648438 -1315.68994140625
-10.187800407409668 -244.10699462890625 -1315.8299560546875
-3.7774999141693115 -243.43800354003906 -1315.699951171875
8.127349853515625 -243.3459930419922 -1315.699951171875
15.0378999710083 -241.43899536132812 -1315.6700439453125
15.218799591064453 -241.31399536132812 -1315.52001953125
-33.36439895629883 -238.16400146484375 -1315.699951171875
23.387699127197266 -236.66900634765625 -1315.699951171875
-40.24829864501953 -233.14700317382812 -1315.780029296875
-39.97169876098633 -233.32400512695312 -1315.6700439453125
-39.68730163574219 -233.5019989013672 -1315.56005859375
26.907100677490234 -233.30599975585938 -1315.7099609375
28.90839958190918 -231.1909942626953 -1315.699951171875
29.122800827026367 -230.96200561523438 -1315.699951171875
29.351699829101562 -230.72000122070312 -1315.699951171875
29.565900802612305 -230.49099731445312 -1315.699951171875
29.7947998046875 -230.24899291992188 -1315.699951171875
30.03059959411621 -230.02000427246094 -1315.699951171875
-44.09450149536133 -229.66000366210938 -1315.6700439453125
30.259599685668945 -229.79600524902344 -1315.699951171875
30.47450065612793 -229.56700134277344 -1315.699951171875
-44.554298400878906 -229.21299743652344 -1315.6600341796875
-44.27730178833008 -229.39199829101562 -1315.530029296875
30.703500747680664 -229.32400512695312 -1315.699951171875
30.927400588989258 -229.09500122070312 -1315.699951171875
31.156299591064453 -228.8560028076172 -1315.699951171875
31.37619972229004 -228.6269989013672 -1315.699951171875
31.605199813842773 -228.38400268554688 -1315.699951171875
31.81719970703125 -228.15499877929688 -1315.699951171875
32.046199798583984 -227.906005859375 -1315.699951171875
32.25870132446289 -227.677001953125 -1315.699951171875
32.48759841918945 -227.43099975585938 -1315.699951171875
37.97999954223633 -220.92599487304688 -1315.68994140625
38.095401763916016 -220.69000244140625 -1315.550048828125
39.150001525878906 -219.4669952392578 -1315.699951171875
-11.561400413513184 -244.1909942626953 -1315.300048828125
-11.14330005645752 -244.11000061035156 -1315.3199462890625
-4.235380172729492 -243.38699340820312 -1315.300048828125
8.127349853515625 -243.2259979248047 -1315.4100341796875
8.458399772644043 -243.19000244140625 -1315.4599609375
8.600709915161133 -243.07400512695312 -1315.3199462890625
9.043109893798828 -243.0050048828125 -1315.300048828125
9.50098991394043 -242.96200561523438 -1315.300048828125
15.184399604797363 -241.29299926757812 -1315.300048828125
15.453399658203125 -241.1959991455078 -1315.300048828125
-33.36479949951172 -238.1649932861328 -1315.300048828125
23.0841007232666 -236.81300354003906 -1315.300048828125
-39.400699615478516 -233.6580047607422 -1315.300048828125
-39.13869857788086 -233.88699340820312 -1315.300048828125
26.824600219726562 -233.22799682617188 -1315.300048828125
29.08139991760254 -230.91099548339844 -1315.300048828125
29.310300827026367 -230.67300415039062 -1315.300048828125
30.43709945678711 -229.51699829101562 -1315.300048828125
-44.4474983215332 -229.10400390625 -1315.300048828125
-44.22460174560547 -229.33299255371094 -1315.300048828125
32.01279830932617 -227.79100036621094 -1315.300048828125
32.20709991455078 -227.62399291992188 -1315.4300537109375
38.062198638916016 -220.6540069580078 -1315.300048828125
38.260101318359375 -220.4250030517578 -1315.300048828125
38.48910140991211 -220.1529998779297 -1315.300048828125
38.68730163574219 -219.9239959716797 -1315.300048828125
38.91619873046875 -219.63499450683594 -1315.300048828125
39.098899841308594 -219.406005859375 -1315.300048828125
-11.561400413513184 -244.09500122070312 -1315.06005859375
-11.561400413513184 -243.99899291992188 -1314.8599853515625
-4.734529972076416 -243.2429962158203 -1314.8800048828125
9.50098991394043 -242.8820037841797 -1314.9000244140625
15.453399658203125 -241.1490020751953 -1314.9000244140625
15.930100440979004 -240.96499633789062 -1314.9200439453125
16.095199584960938 -240.82699584960938 -1314.81005859375
16.334699630737305 -240.75900268554688 -1314.9200439453125
16.82710075378418 -240.5679931640625 -1314.9000244140625
17.105199813842773 -240.4409942626953 -1314.9000244140625
-33.337501525878906 -238.14100646972656 -1314.9000244140625
22.792200088500977 -236.88900756835938 -1314.9300537109375
-37.06990051269531 -235.45700073242188 -1314.9000244140625
-36.72010040283203 -235.7010040283203 -1314.9000244140625
-36.49359893798828 -235.80299377441406 -1314.760009765625
-37.583499908447266 -235.0330047607422 -1314.9000244140625
-37.29880142211914 -235.26199340820312 -1314.9000244140625
-38.13050079345703 -234.58299255371094 -1314.93994140625
-37.8125 -234.83999633789062 -1314.9000244140625
-38.84600067138672 -234.0330047607422 -1315.050048828125
-38.55730056762695 -234.21499633789062 -1314.93994140625
26.765300750732422 -233.17100524902344 -1314.9000244140625
29.25950050354004 -230.61599731445312 -1314.9000244140625
29.475799560546875 -230.38699340820312 -1314.9000244140625
30.185199737548828 -229.62899780273438 -1314.8699951171875
-44.36320114135742 -229.02200317382812 -1314.97998046875
-44.106201171875 -229.21099853515625 -1314.8499755859375
-43.82929992675781 -229.4010009765625 -1314.719970703125
-44.520999908447266 -228.82200622558594 -1314.8699951171875
31.47010040283203 -228.26199340820312 -1314.9300537109375
31.722700119018555 -228.0540008544922 -1315.0799560546875
39.05350112915039 -219.35899353027344 -1315.06005859375
39.1775016784668 -219.13999938964844 -1314.9200439453125
-11.561400413513184 -243.8979949951172 -1314.5
-4.914680004119873 -243.1529998779297 -1314.699951171875
-5.151130199432373 -243.0760040283203 -1314.47998046875
9.50098991394043 -242.75799560546875 -1314.6300048828125
9.827949523925781 -242.7239990234375 -1314.6700439453125
9.971890449523926 -242.61500549316406 -1314.52001953125
10.41670036315918 -242.54200744628906 -1314.5
17.057300567626953 -240.40499877929688 -1314.699951171875
17.239900588989258 -240.2779998779297 -1314.5400390625
-33.313899993896484 -238.11700439453125 -1314.68994140625
-33.11320114135742 -238.23699951171875 -1314.5400390625
22.323699951171875 -237.08700561523438 -1314.469970703125
-36.22809982299805 -235.95899963378906 -1314.5
-35.92720031738281 -236.18800354003906 -1314.5
26.711999893188477 -233.11599731445312 -1314.6500244140625
26.630199432373047 -233.03500366210938 -1314.3800048828125
29.432100296020508 -230.34100341796875 -1314.6800537109375
29.63010025024414 -230.08299255371094 -1314.56005859375
29.82819938659668 -229.82400512695312 -1314.4300537109375
30.03179931640625 -229.66000366210938 -1314.5400390625
-43.78160095214844 -229.35499572753906 -1314.5
-44.53459930419922 -228.64100646972656 -1314.5400390625
-44.69110107421875 -228.4320068359375 -1314.4300537109375
31.183500289916992 -228.4290008544922 -1314.5
-11.522199630737305 -243.74600219726562 -1314.0699462890625
-23.940099716186523 -242.76600646972656 -1314.0999755859375
-5.151130199432373 -242.97799682617188 -1314.0999755859375
10.41670036315918 -242.40699768066406 -1314.0999755859375
17.320999145507812 -240.09500122070312 -1314.0799560546875
17.497699737548828 -239.92999267578125 -1313.9200439453125
-33.03179931640625 -238.2480010986328 -1314.0999755859375
-32.721099853515625 -238.4770050048828 -1314.0999755859375
22.028200149536133 -237.1439971923828 -1314.0999755859375
-36.165401458740234 -235.92100524902344 -1314.0999755859375
26.5851993560791 -232.99400329589844 -1314.0999755859375
29.792299270629883 -229.78599548339844 -1314.0999755859375
-43.61800003051758 -229.28199768066406 -1314.0699462890625
-43.37419891357422 -229.40499877929688 -1313.9100341796875
30.921600341796875 -228.63800048828125 -1314.0999755859375
-44.82350158691406 -228.1060028076172 -1314.0999755859375
-18.42959976196289 -244.16099548339844 -1313.699951171875
-11.648599624633789 -243.66799926757812 -1313.81005859375
-11.889200210571289 -243.58200073242188 -1313.550048828125
-23.9242000579834 -242.8509979248047 -1313.699951171875
-5.151130199432373 -242.91099548339844 -1313.699951171875
10.41670036315918 -242.27999877929688 -1313.8599853515625
10.41670036315918 -242.14199829101562 -1313.6600341796875
17.40570068359375 -239.88600158691406 -1313.699951171875
17.742799758911133 -239.73599243164062 -1313.699951171875
18.083099365234375 -239.5659942626953 -1313.699951171875
-32.449100494384766 -238.6219940185547 -1313.699951171875
21.70789909362793 -237.2689971923828 -1313.81005859375
21.6028995513916 -237.16799926757812 -1313.5400390625
-36.104801177978516 -235.8719940185547 -1313.81005859375
-36.26919937133789 -235.69400024414062 -1313.68994140625
26.52720069885254 -232.94700622558594 -1313.699951171875
29.76259994506836 -229.75599670410156 -1313.699951171875
-43.3317985534668 -229.36399841308594 -1313.699951171875
30.665000915527344 -228.8280029296875 -1313.699951171875
-44.758399963378906 -228.04100036621094 -1313.9000244140625
-44.896400451660156 -227.822998046875 -1313.739990234375
-18.721500396728516 -244.08700561523438 -1313.43994140625
-18.879499435424805 -244.0189971923828 -1313.31005859375
-12.03279972076416 -243.52200317382812 -1313.3299560546875
-23.9242000579834 -242.9010009765625 -1313.300048828125
-23.466299057006836 -243.01199340820312 -1313.300048828125
-23.14259910583496 -243.11099243164062 -1313.300048828125
-5.166049957275391 -242.76600646972656 -1313.27001953125
10.41670036315918 -241.96499633789062 -1313.300048828125
17.99519920349121 -239.51100158691406 -1313.47998046875
18.16900062561035 -239.33200073242188 -1313.3299560546875
18.539899826049805 -239.11199951171875 -1313.300048828125
-32.411399841308594 -238.58799743652344 -1313.4599609375
-32.19580078125 -238.69500732421875 -1313.3199462890625
21.28860092163086 -237.28700256347656 -1313.300048828125
-36.3119010925293 -235.5240020751953 -1313.31005859375
-36.481201171875 -235.33299255371094 -1313.18994140625
26.448699951171875 -232.85299682617188 -1313.300048828125
29.489900588989258 -229.94400024414062 -1313.300048828125
-43.03139877319336 -229.52000427246094 -1313.300048828125
29.718900680541992 -229.69500732421875 -1313.300048828125
29.924299240112305 -229.46600341796875 -1313.300048828125
30.388900756835938 -229.01199340820312 -1313.300048828125
-44.86040115356445 -227.69000244140625 -1313.300048828125
-18.887500762939453 -243.9340057373047 -1312.9000244140625
-22.932300567626953 -243.218994140625 -1312.9000244140625
-12.01930046081543 -243.3719940185547 -1312.9000244140625
-23.9242000579834 -242.91600036621094 -1312.9000244140625
-23.466299057006836 -243.0260009765625 -1312.9000244140625
-23.16119956970215 -243.11900329589844 -1312.9000244140625
-5.328629970550537 -242.69900512695312 -1313.0999755859375
-5.609010219573975 -242.63400268554688 -1312.8699951171875
10.41670036315918 -241.82899475097656 -1313.050048828125
10.41670036315918 -241.6909942626953 -1312.8499755859375
18.460599899291992 -239.0570068359375 -1313.0799560546875
-32.09880065917969 -238.69900512695312 -1312.9000244140625
-31.782400131225586 -238.92799377441406 -1312.9000244140625
18.673900604248047 -238.8090057373047 -1312.8900146484375
18.887300491333008 -238.57200622558594 -1312.699951171875
20.944700241088867 -237.31900024414062 -1312.9300537109375
-36.43149948120117 -235.29200744628906 -1312.9000244140625
-39.0526008605957 -232.8699951171875 -1312.8699951171875
-38.77840042114258 -233.0489959716797 -1312.75
26.38129997253418 -232.77200317382812 -1312.9000244140625
-39.242801666259766 -232.60000610351562 -1312.72998046875
29.200899124145508 -230.10899353027344 -1312.8800048828125
-42.97380065917969 -229.46600341796875 -1313.02001953125
-42.70029830932617 -229.64700317382812 -1312.9100341796875
-42.42530059814453 -229.82899475097656 -1312.7900390625
29.881399154663086 -229.4199981689453 -1313.0899658203125
30.096599578857422 -229.18099975585938 -1312.93994140625
30.31170082092285 -228.93299865722656 -1312.7900390625
-44.80329895019531 -227.6300048828125 -1313.0400390625
-44.987300872802734 -227.3470001220703 -1312.9200439453125
-45.17129898071289 -227.0780029296875 -1312.800048828125
-18.887500762939453 -243.8719940185547 -1312.5
-22.885000228881836 -243.20199584960938 -1312.5
-12.01930046081543 -243.2310028076172 -1312.5999755859375
-23.11389923095703 -243.0989990234375 -1312.5
-12.351300239562988 -243.1230010986328 -1312.3499755859375
-5.609010219573975 -242.5469970703125 -1312.5
10.45829963684082 -241.46400451660156 -1312.4599609375
10.638699531555176 -241.31700134277344 -1312.31005859375
10.874600410461426 -241.281005859375 -1312.3399658203125
-31.51219940185547 -239.05999755859375 -1312.6400146484375
-31.274999618530273 -239.1580047607422 -1312.510009765625
-30.891000747680664 -239.39700317382812 -1312.5
18.791200637817383 -238.5189971923828 -1312.5
19.136499404907227 -238.29800415039062 -1312.489990234375
19.424100875854492 -238.18600463867188 -1312.6199951171875
19.5757999420166 -237.99099731445312 -1312.489990234375
19.93709945678711 -237.75999450683594 -1312.5
20.50979995727539 -237.37100219726562 -1312.489990234375
-36.61069869995117 -235.0019989013672 -1312.5
-37.08760070800781 -234.55999755859375 -1312.5
-36.839599609375 -234.78900146484375 -1312.5
-37.56230163574219 -234.11300659179688 -1312.5
-37.31660079956055 -234.3419952392578 -1312.5
-38.03419876098633 -233.6790008544922 -1312.5
-37.79119873046875 -233.9080047607422 -1312.5
-38.50579833984375 -233.22799682617188 -1312.5
-38.263099670410156 -233.45700073242188 -1312.5
26.32309913635254 -232.72500610351562 -1312.5
-39.51319885253906 -232.30599975585938 -1312.530029296875
-39.94960021972656 -231.93499755859375 -1312.510009765625
-40.387901306152344 -231.5709991455078 -1312.47998046875
29.142000198364258 -230.06300354003906 -1312.5
-42.37799835205078 -229.78500366210938 -1312.5
29.822399139404297 -229.35800170898438 -1312.5
30.283000946044922 -228.90499877929688 -1312.5
30.504600524902344 -228.67599487304688 -1312.5
30.73349952697754 -228.43600463867188 -1312.5
30.952499389648438 -228.20700073242188 -1312.5
31.181400299072266 -227.9709930419922 -1312.5
31.40180015563965 -227.74200439453125 -1312.5
-45.12179946899414 -227.0229949951172 -1312.5
-18.887500762939453 -243.7689971923828 -1312.0999755859375
-22.826200485229492 -243.17799377441406 -1312.22998046875
-22.554899215698242 -243.22300720214844 -1312.0999755859375
-22.990699768066406 -243.07400512695312 -1312.0999755859375
-12.493200302124023 -243.0679931640625 -1312.1300048828125
-5.609010219573975 -242.531005859375 -1312.0999755859375
10.874600410461426 -241.17300415039062 -1312.0999755859375
11.332500457763672 -241.08700561523438 -1312.0999755859375
-30.603599548339844 -239.5240020751953 -1312.0999755859375
19.84589958190918 -237.69700622558594 -1312.260009765625
20.011999130249023 -237.4929962158203 -1312.1199951171875
20.344499588012695 -237.26499938964844 -1312.0999755859375
-34.79710006713867 -236.38600158691406 -1312.0999755859375
-34.53350067138672 -236.61500549316406 -1312.0999755859375
-35.302799224853516 -235.95399475097656 -1312.0999755859375
-35.026100158691406 -236.18299865722656 -1312.0999755859375
-35.84469985961914 -235.51100158691406 -1312.1300048828125
-35.531700134277344 -235.76499938964844 -1312.0999755859375
-36.55329895019531 -234.94700622558594 -1312.239990234375
-36.2776985168457 -235.13299560546875 -1312.1300048828125
-36.75130081176758 -234.69000244140625 -1312.0899658203125
-36.94929885864258 -234.427001953125 -1311.949951171875
26.26689910888672 -232.6719970703125 -1312.1800537109375
26.207799911499023 -232.61399841308594 -1311.9200439453125
-40.66339874267578 -231.27200317382812 -1312.25
-40.87139892578125 -231.0279998779297 -1312.0899658203125
-41.07929992675781 -230.7729949951172 -1311.9300537109375
-42.08810043334961 -229.9510040283203 -1312.0999755859375
28.885400772094727 -230.25599670410156 -1312.0999755859375
29.56570053100586 -229.56199645996094 -1312.0999755859375
31.375999450683594 -227.70799255371094 -1312.0999755859375
31.604999542236328 -227.4709930419922 -1312.0999755859375
-45.01390075683594 -226.927001953125 -1312.050048828125
-45.198299407958984 -226.6490020751953 -1311.9300537109375
-19.123600006103516 -243.61099243164062 -1311.9000244140625
-22.40519905090332 -243.17999267578125 -1311.8499755859375
-22.058399200439453 -243.21299743652344 -1311.7099609375
-19.30389976501465 -243.52499389648438 -1311.739990234375
-23.008399963378906 -242.99000549316406 -1311.699951171875
-12.47719955444336 -242.95899963378906 -1311.699951171875
-6.066889762878418 -242.5850067138672 -1311.699951171875
11.332500457763672 -240.93899536132812 -1311.81005859375
11.622300148010254 -240.89199829101562 -1311.8699951171875
11.781100273132324 -240.7689971923828 -1311.72998046875
-30.572599411010742 -239.4969940185547 -1311.8900146484375
-30.348899841308594 -239.5970001220703 -1311.72998046875
-29.928300857543945 -239.8459930419922 -1311.699951171875
-32.97359848022461 -237.76600646972656 -1311.699951171875
-32.618099212646484 -238.01699829101562 -1311.6700439453125
-32.39250183105469 -238.11099243164062 -1311.510009765625
-33.472999572753906 -237.33200073242188 -1311.699951171875
-33.20249938964844 -237.56100463867188 -1311.699951171875
19.5762996673584 -237.5260009765625 -1311.699951171875
20.263099670410156 -237.1999969482422 -1311.9000244140625
-34.25680160522461 -236.77099609375 -1311.8699951171875
-34.010398864746094 -236.89500427246094 -1311.719970703125
-33.701900482177734 -237.13999938964844 -1311.699951171875
20.472299575805664 -236.97300720214844 -1311.719970703125
20.805500030517578 -236.8159942626953 -1311.81005859375
20.954099655151367 -236.6280059814453 -1311.68994140625
21.317800521850586 -236.39700317382812 -1311.699951171875
-36.9025993347168 -234.38400268554688 -1311.699951171875
26.16950035095215 -232.57899475097656 -1311.699951171875
-41.284000396728516 -230.50399780273438 -1311.699951171875
28.62339973449707 -230.4510040283203 -1311.699951171875
-42.03879928588867 -229.89999389648438 -1311.8499755859375
-41.80670166015625 -230.04200744628906 -1311.7099609375
-41.512901306152344 -230.29200744628906 -1311.699951171875
29.316499710083008 -229.76600646972656 -1311.699951171875
31.582599639892578 -227.44400024414062 -1311.699951171875
-45.157901763916016 -226.60699462890625 -1311.699951171875
-21.882999420166016 -243.15899658203125 -1311.489990234375
-21.63479995727539 -243.20799255371094 -1311.4300537109375
-21.14240074157715 -243.24600219726562 -1311.2900390625
-19.345399856567383 -243.4080047607422 -1311.300048828125
-23.008399963378906 -242.88800048828125 -1311.300048828125
-12.47719955444336 -242.81300354003906 -1311.3299560546875
-12.719599723815918 -242.68699645996094 -1311.1099853515625
-6.5247697830200195 -242.6020050048828 -1311.300048828125
11.790399551391602 -240.60400390625 -1311.300048828125
-29.65329933166504 -239.9510040283203 -1311.5
-29.425899505615234 -240.0449981689453 -1311.3399658203125
-28.941999435424805 -240.30599975585938 -1311.2900390625
-28.711299896240234 -240.38600158691406 -1311.1500244140625
-31.601299285888672 -238.6699981689453 -1311.300048828125
-31.229400634765625 -238.90899658203125 -1311.300048828125
-30.991899490356445 -239.0030059814453 -1311.1600341796875
-32.11790084838867 -238.26100158691406 -1311.300048828125
-31.830299377441406 -238.49000549316406 -1311.300048828125
19.1210994720459 -237.55999755859375 -1311.280029296875
21.232099533081055 -236.33399963378906 -1311.449951171875
21.393199920654297 -236.125 -1311.31005859375
21.71540069580078 -235.8939971923828 -1311.300048828125
21.944299697875977 -235.72900390625 -1311.300048828125
22.2637996673584 -235.5 -1311.300048828125
22.492799758911133 -235.322998046875 -1311.300048828125
22.80780029296875 -235.09300231933594 -1311.2900390625
23.070999145507812 -234.968994140625 -1311.4100341796875
23.22909927368164 -234.78199768066406 -1311.2900390625
23.564800262451172 -234.54299926757812 -1311.300048828125
-37.08039855957031 -234.0989990234375 -1311.300048828125
23.793699264526367 -234.35400390625 -1311.300048828125
24.083599090576172 -234.125 -1311.300048828125
24.3125 -233.93499755859375 -1311.300048828125
24.641700744628906 -233.697998046875 -1311.2900390625
24.88559913635254 -233.5800018310547 -1311.4200439453125
25.050500869750977 -233.38499450683594 -1311.2900390625
25.361900329589844 -233.13600158691406 -1311.300048828125
25.590900421142578 -232.96499633789062 -1311.300048828125
25.879199981689453 -232.73599243164062 -1311.300048828125
28.344100952148438 -230.64999389648438 -1311.300048828125
-41.707000732421875 -230.01300048828125 -1311.300048828125
29.05470085144043 -229.96600341796875 -1311.300048828125
31.552000045776367 -227.40199279785156 -1311.300048828125
31.755800247192383 -227.17300415039062 -1311.300048828125
31.984800338745117 -226.93099975585938 -1311.300048828125
32.20289993286133 -226.70199584960938 -1311.300048828125
-45.1078987121582 -226.55099487304688 -1311.300048828125
-20.966699600219727 -243.1580047607422 -1311.0999755859375
-20.7189998626709 -243.19000244140625 -1311.06005859375
-19.345399856567383 -243.26499938964844 -1310.9300537109375
-23.261600494384766 -242.7100067138672 -1311.0799560546875
-20.7189998626709 -243.07400512695312 -1310.8599853515625
-20.26110076904297 -243.08700561523438 -1310.81005859375
-19.803300857543945 -243.10699462890625 -1310.77001953125
-19.345399856567383 -243.1300048828125 -1310.72998046875
-19.04170036315918 -243.14300537109375 -1310.7099609375
-23.435100555419922 -242.59500122070312 -1310.9300537109375
-12.89739990234375 -242.6230010986328 -1310.9100341796875
-7.898409843444824 -242.54200744628906 -1310.9000244140625
-7.440529823303223 -242.55999755859375 -1310.9000244140625
-6.982649803161621 -242.572998046875 -1310.9000244140625
11.790399551391602 -240.46800231933594 -1311.02001953125
12.037699699401855 -240.41600036621094 -1311.0899658203125
-28.654600143432617 -240.35000610351562 -1310.9000244140625
12.213500022888184 -240.2989959716797 -1310.93994140625
12.706100463867188 -240.17100524902344 -1310.9000244140625
-30.70789909362793 -239.13900756835938 -1310.9000244140625
-30.309600830078125 -239.38499450683594 -1310.8900146484375
-30.09160041809082 -239.4759979248047 -1310.739990234375
18.76020050048828 -237.58299255371094 -1310.9000244140625
-37.027198791503906 -234.0469970703125 -1311.0
-37.188899993896484 -233.85400390625 -1310.8800048828125
28.24489974975586 -230.62600708007812 -1310.8900146484375
28.77079963684082 -230.14599609375 -1310.9000244140625
32.17359924316406 -226.6750030517578 -1311.0799560546875
-45.0796012878418 -226.42799377441406 -1310.8699951171875
32.32440185546875 -226.4709930419922 -1310.9300537109375
-45.207698822021484 -226.2010040283203 -1310.719970703125
-19.345399856567383 -243.0399932861328 -1310.5
-18.888399124145508 -243.0760040283203 -1310.5400390625
-18.42959976196289 -243.06300354003906 -1310.489990234375
-23.466299057006836 -242.468994140625 -1310.5
-12.935099601745605 -242.50399780273438 -1310.5
-8.356289863586426 -242.47799682617188 -1310.5
-28.344100952148438 -240.45899963378906 -1310.5999755859375
-28.07939910888672 -240.54800415039062 -1310.47998046875
-27.589599609375 -240.77999877929688 -1310.47998046875
-27.339599609375 -240.84500122070312 -1310.3299560546875
12.706100463867188 -240.0240020751953 -1310.6099853515625
12.97719955444336 -239.97300720214844 -1310.6800537109375
-29.800399780273438 -239.59300231933594 -1310.5
-29.40239906311035 -239.8260040283203 -1310.5
-29.148000717163086 -239.91000366210938 -1310.3699951171875
13.143500328063965 -239.843994140625 -1310.530029296875
13.657299995422363 -239.6540069580078 -1310.469970703125
13.833600044250488 -239.4770050048828 -1310.31005859375
14.07979965209961 -239.43800354003906 -1310.3900146484375
18.621000289916992 -237.4929962158203 -1310.530029296875
-37.21979904174805 -233.68499755859375 -1310.530029296875
28.001699447631836 -230.74600219726562 -1310.5
28.29680061340332 -230.47999572753906 -1310.5400390625
28.50349998474121 -230.3300018310547 -1310.699951171875
-45.169498443603516 -226.16400146484375 -1310.5
-19.345399856567383 -242.91299438476562 -1310.0999755859375
-18.42959976196289 -242.93600463867188 -1310.0999755859375
-17.97170066833496 -242.92599487304688 -1310.0999755859375
-17.513900756835938 -242.9010009765625 -1310.0999755859375
-17.02630043029785 -242.82200622558594 -1310.0699462890625
-23.74839973449707 -242.2740020751953 -1310.260009765625
-16.85379981994629 -242.68699645996094 -1309.9100341796875
-16.598100662231445 -242.67100524902344 -1309.9300537109375
-12.935099601745605 -242.44000244140625 -1310.0999755859375
-8.814169883728027 -242.343994140625 -1310.1400146484375
-23.91029930114746 -242.14500427246094 -1310.1199951171875
-9.272049903869629 -242.2209930419922 -1309.93994140625
-27.25860023498535 -240.80099487304688 -1310.0999755859375
-28.825700759887695 -240.01499938964844 -1310.0999755859375
14.07979965209961 -239.31399536132812 -1310.0999755859375
18.175100326538086 -237.5240020751953 -1310.1199951171875
-37.0994987487793 -233.64999389648438 -1310.0999755859375
27.957799911499023 -230.70700073242188 -1310.0999755859375
-45.12369918823242 -226.1060028076172 -1310.0999755859375
-19.345399856567383 -242.7729949951172 -1309.8199462890625
-19.345399856567383 -242.61900329589844 -1309.6199951171875
-16.598100662231445 -242.5780029296875 -1309.699951171875
-16.140199661254883 -242.54800415039062 -1309.699951171875
-12.935099601745605 -242.3179931640625 -1309.719970703125
-23.9242000579834 -242.00999450683594 -1309.699951171875
-13.165900230407715 -242.23500061035156 -1309.5
-10.645700454711914 -242.21800231933594 -1309.550048828125
-10.187800407409668 -242.21400451660156 -1309.5799560546875
-9.703450202941895 -242.2169952392578 -1309.68994140625
-26.938800811767578 -240.89500427246094 -1309.8699951171875
-26.652000427246094 -240.95899963378906 -1309.719970703125
-28.746200561523438 -239.95899963378906 -1309.8900146484375
-28.4950008392334 -240.03700256347656 -1309.72998046875
-28.016399383544922 -240.27099609375 -1309.72998046875
-27.720600128173828 -240.34800720214844 -1309.6099853515625
14.07979965209961 -239.13499450683594 -1309.77001953125
14.07979965209961 -238.99400329589844 -1309.5699462890625
17.73430061340332 -237.5540008544922 -1309.699951171875
-37.03200149536133 -233.59100341796875 -1309.699951171875
-45.09410095214844 -226.0590057373047 -1309.699951171875
-19.345399856567383 -242.51100158691406 -1309.300048828125
-16.140199661254883 -242.44000244140625 -1309.300048828125
-15.673700332641602 -242.3509979248047 -1309.280029296875
-24.211700439453125 -241.81199645996094 -1309.469970703125
-15.515299797058105 -242.21600341796875 -1309.1300048828125
-15.224499702453613 -242.1909942626953 -1309.1700439453125
-13.348299980163574 -242.16299438476562 -1309.3399658203125
-11.533699989318848 -242.18299865722656 -1309.3399658203125
-11.10099983215332 -242.197998046875 -1309.3399658203125
-24.371400833129883 -241.6750030517578 -1309.3199462890625
-26.486299514770508 -240.89999389648438 -1309.4599609375
-26.207599639892578 -240.968994140625 -1309.3199462890625
-27.415300369262695 -240.4510040283203 -1309.449951171875
-27.130399703979492 -240.5279998779297 -1309.31005859375
-26.652000427246094 -240.74600219726562 -1309.3199462890625
-26.356300354003906 -240.81399536132812 -1309.18994140625
14.07979965209961 -238.8939971923828 -1309.300048828125
17.293899536132812 -237.5679931640625 -1309.2900390625
-36.98849868774414 -233.54800415039062 -1309.47998046875
-36.76179885864258 -233.6820068359375 -1309.3299560546875
-36.45830154418945 -233.93800354003906 -1309.300048828125
-19.345399856567383 -242.35499572753906 -1308.97998046875
-19.345399856567383 -242.17599487304688 -1308.780029296875
-15.224499702453613 -242.0919952392578 -1308.9000244140625
-14.766599655151367 -242.06300354003906 -1308.9000244140625
-13.392999649047852 -242.0290069580078 -1308.9000244140625
-12.01930046081543 -242.05799865722656 -1308.9000244140625
-24.385299682617188 -241.4499969482422 -1308.8900146484375
-26.051000595092773 -240.91000366210938 -1309.050048828125
-25.746999740600586 -240.9709930419922 -1308.9100341796875
-24.54010009765625 -241.28799438476562 -1308.739990234375
14.11359977722168 -238.7220001220703 -1308.8699951171875
16.837799072265625 -237.58599853515625 -1308.8800048828125
-36.15739822387695 -234.08700561523438 -1308.9000244140625
-19.345399856567383 -242.07699584960938 -1308.5
-14.766599655151367 -242.0019989013672 -1308.5
-13.392999649047852 -241.95700073242188 -1308.5
-12.47719955444336 -241.93299865722656 -1308.5
-25.588600158691406 -240.90699768066406 -1308.6500244140625
-25.270299911499023 -240.95700073242188 -1308.510009765625
-24.83989906311035 -241.09800720214844 -1308.5
13.983499526977539 -238.64999389648438 -1308.5799560546875
14.11359977722168 -238.5260009765625 -1308.469970703125
16.399799346923828 -237.6009979248047 -1308.469970703125
-36.10060119628906 -234.03500366210938 -1308.6199951171875
-35.82809829711914 -234.22000122070312 -1308.510009765625
-35.55030059814453 -234.40499877929688 -1308.4100341796875
-19.345399856567383 -241.9080047607422 -1308.1199951171875
-14.766599655151367 -241.9080047607422 -1308.0999755859375
-14.308699607849121 -241.89100646972656 -1308.0999755859375
-13.850799560546875 -241.8679962158203 -1308.0999755859375
-13.411100387573242 -241.83200073242188 -1308.0699462890625
-12.935099601745605 -241.82699584960938 -1308.1400146484375
-19.345399856567383 -241.76100158691406 -1307.9200439453125
-13.270600318908691 -241.77200317382812 -1307.9200439453125
-25.099300384521484 -240.88699340820312 -1308.280029296875
-24.83989906311035 -240.94000244140625 -1308.2099609375
-24.83989906311035 -240.7949981689453 -1308.010009765625
14.07979965209961 -238.41799926757812 -1308.0999755859375
16.020099639892578 -237.6060028076172 -1308.0999755859375
-35.26380157470703 -234.56399536132812 -1308.0999755859375
-34.97269821166992 -234.79299926757812 -1308.0999755859375
-13.850799560546875 -241.78199768066406 -1307.9000244140625
-13.575799942016602 -241.7790069580078 -1307.9000244140625
-19.345399856567383 -241.67599487304688 -1307.699951171875
-14.308699607849121 -241.69900512695312 -1307.6800537109375
-13.850799560546875 -241.6909942626953 -1307.699951171875
-13.411100387573242 -241.70599365234375 -1307.739990234375
-24.83989906311035 -240.6529998779297 -1307.699951171875
14.11340045928955 -238.26400756835938 -1307.6800537109375
15.87279987335205 -237.5489959716797 -1307.739990234375
-34.688499450683594 -234.91299438476562 -1307.9000244140625
-34.47549819946289 -235.03399658203125 -1307.739990234375
-34.12990188598633 -235.29200744628906 -1307.699951171875
-19.345399856567383 -241.5780029296875 -1307.300048828125
-14.766599655151367 -241.59500122070312 -1307.300048828125
-14.308699607849121 -241.5919952392578 -1307.300048828125
-13.850799560546875 -241.58399963378906 -1307.300048828125
-25.099199295043945 -240.4320068359375 -1307.469970703125
-25.270200729370117 -240.2779998779297 -1307.3299560546875
13.972599983215332 -238.1999969482422 -1307.300048828125
15.45259952545166 -237.57400512695312 -1307.300048828125
-33.82830047607422 -235.4199981689453 -1307.4000244140625
-33.57619857788086 -235.53500366210938 -1307.280029296875
-33.243099212646484 -235.76600646972656 -1307.300048828125
-19.345399856567383 -241.4340057373047 -1306.969970703125
-15.224499702453613 -241.5290069580078 -1306.9000244140625
-14.308699607849121 -241.52999877929688 -1306.9000244140625
-19.345399856567383 -241.26199340820312 -1306.77001953125
-25.604799270629883 -240.0019989013672 -1307.0400390625
-25.756799697875977 -239.8509979248047 -1306.9100341796875
13.599300384521484 -238.19900512695312 -1306.9300537109375
15.010700225830078 -237.6009979248047 -1306.8699951171875
-32.93349838256836 -235.89700317382812 -1306.97998046875
-32.625 -236.06199645996094 -1306.9000244140625
-32.31880187988281 -236.2259979248047 -1306.8299560546875
-15.68239974975586 -241.39199829101562 -1306.5899658203125
-14.308699607849121 -241.40899658203125 -1306.530029296875
-19.345399856567383 -241.16799926757812 -1306.5
-16.140199661254883 -241.26300048828125 -1306.4200439453125
-14.308699607849121 -241.302001953125 -1306.3299560546875
-25.80069923400879 -239.64700317382812 -1306.4599609375
-25.983400344848633 -239.48699951171875 -1306.300048828125
13.431699752807617 -238.14700317382812 -1306.6600341796875
13.312800407409668 -238.0709991455078 -1306.4000244140625
14.675999641418457 -237.61099243164062 -1306.5
-32.01359939575195 -236.3489990234375 -1306.5899658203125
-31.700599670410156 -236.51300048828125 -1306.510009765625
-31.385799407958984 -236.677001953125 -1306.4300537109375
-19.828899383544922 -240.98800659179688 -1306.0699462890625
-16.598100662231445 -241.15199279785156 -1306.0999755859375
-14.308699607849121 -241.2209930419922 -1306.0999755859375
-19.998600006103516 -240.85299682617188 -1305.9100341796875
-26.213600158691406 -239.30999755859375 -1306.0999755859375
13.161700248718262 -238.0330047607422 -1306.0999755859375
14.517000198364258 -237.56199645996094 -1306.1199951171875
-31.239999771118164 -236.63600158691406 -1306.0799560546875
-31.0 -236.72000122070312 -1305.93994140625
-17.055999755859375 -241.072998046875 -1305.699951171875
-14.766599655151367 -241.125 -1305.699951171875
-20.26110076904297 -240.72799682617188 -1305.699951171875
-26.48590087890625 -239.06700134277344 -1305.8599853515625
-26.65169906616211 -238.91600036621094 -1305.719970703125
13.163999557495117 -237.94500732421875 -1305.699951171875
14.079000473022461 -237.5780029296875 -1305.68994140625
-30.93779945373535 -236.67999267578125 -1305.699951171875
-17.513900756835938 -240.93800354003906 -1305.3900146484375
-15.224499702453613 -241.06700134277344 -1305.300048828125
-20.28809928894043 -240.54400634765625 -1305.27001953125
-17.97170066833496 -240.79100036621094 -1305.25
-20.458599090576172 -240.38999938964844 -1305.1199951171875
-26.708999633789062 -238.7239990234375 -1305.27001953125
-26.886600494384766 -238.55999755859375 -1305.1199951171875
13.206399917602539 -237.8070068359375 -1305.27001953125
13.637900352478027 -237.60499572753906 -1305.27001953125
-30.625999450683594 -236.7949981689453 -1305.4200439453125
-30.35890007019043 -236.88999938964844 -1305.2900390625
-29.956100463867188 -237.11399841308594 -1305.300048828125
-15.266400337219238 -240.9510040283203 -1304.8599853515625
-19.36400032043457 -240.5260009765625 -1304.8699951171875
-18.887500762939453 -240.6269989013672 -1304.9000244140625
-18.42959976196289 -240.67100524902344 -1304.9000244140625
-15.446900367736816 -240.86000061035156 -1304.7099609375
-20.7189998626709 -240.26400756835938 -1304.9000244140625
-19.803300857543945 -240.36000061035156 -1304.77001953125
-27.12929916381836 -238.39599609375 -1304.9000244140625
-28.49090003967285 -237.74099731445312 -1304.93994140625
-27.999500274658203 -237.97900390625 -1304.93994140625
-27.722999572753906 -238.05799865722656 -1304.8399658203125
13.10159969329834 -237.75900268554688 -1304.9000244140625
-29.65679931640625 -237.20700073242188 -1305.0899658203125
-29.406600952148438 -237.2830047607422 -1304.93994140625
-28.918500900268555 -237.51800537109375 -1304.93994140625
13.330499649047852 -237.6219940185547 -1304.9000244140625
-15.68239974975586 -240.79299926757812 -1304.5
-20.76140022277832 -240.09100341796875 -1304.469970703125
-20.26110076904297 -240.21200561523438 -1304.5
-27.417800903320312 -238.16700744628906 -1304.6300048828125
