-1.854758265684195351e+01 -4.608565981390012212e+01 2.298971374560960612e+01
-1.598220738221687043e+01 -4.550911983127241456e+01 2.134535369523564441e+01
-1.290046848524454504e+01 -4.623652918835210812e+01 2.038953053593604636e+01
-1.087899606252756968e+01 -5.005649418836304676e+01 2.087788035797416342e+01
-1.776479590022535859e+01 -5.049631858987891064e+01 2.505404742736754997e+01
-2.068155647492960725e+01 -5.201737315075052948e+01 2.857874863022993850e+01
-1.532588311638399148e+01 -5.235033218676261413e+01 2.448964566175936852e+01
-9.132830734411854223e+00 -5.504051257433877709e+01 2.292461346087725360e+01
-7.745688401241061172e+00 -5.981692402844367962e+01 2.560264361284362167e+01
-1.507140290439856045e+01 -5.875431510638452437e+01 2.888457833988491075e+01
-2.073913227359257405e+01 -5.531521751872838877e+01 3.165318013082082871e+01
-2.486976753927540074e+01 -5.512199930169526851e+01 3.717917104409843887e+01
-2.310687414909455129e+01 -5.978110339522987715e+01 3.965255584330930105e+01
-1.580739015649570689e+01 -6.357679719362175774e+01 3.476745542948765433e+01
-9.536674502298630784e+00 -6.811268067909929869e+01 3.664754327569949055e+01
-1.037805583916190244e+01 -7.121239123810676119e+01 4.372825239076041726e+01
-1.568201500733827913e+01 -6.856096275568160081e+01 4.282850744917072916e+01
-2.109335270010919317e+01 -6.584252114218350016e+01 4.477796158279124938e+01
-2.208536136136846295e+01 -6.718429775971418394e+01 4.915707190295074724e+01
-2.142224757379655387e+01 -6.891974365309374662e+01 5.233937655034492309e+01
-1.732004918744746647e+01 -7.127697069446583100e+01 5.166263444468017951e+01
-1.160179469832024779e+01 -7.344331068031658560e+01 5.042389109432656369e+01
-1.059322384207622747e+01 -7.533107689493192538e+01 5.538388582865513854e+01
-1.763434100786106740e+01 -7.289183769649815758e+01 5.716657241295638414e+01
-1.897193076082099594e+01 -7.323704833583201435e+01 6.386484634962835116e+01
-1.746022593848373106e+01 -7.425873399659946017e+01 7.019332410848915060e+01
-2.192009502965044021e+01 -7.185046035151708566e+01 6.854518371969106738e+01
-2.591121543281441575e+01 -6.824900977194988627e+01 7.018369460880921906e+01
-2.245031131327969831e+01 -7.079730151826993279e+01 7.867418469655740410e+01
-2.516632635419414044e+01 -6.761314242264393215e+01 8.226426596991836959e+01
-2.750533662033348037e+01 -6.584628535080463507e+01 7.664066464288089264e+01
-2.934533296415698089e+01 -6.350549165705234600e+01 7.337292487436229749e+01
-3.030934718531554495e+01 -6.201896749134436959e+01 7.786920521302067755e+01
-2.754418514325959677e+01 -6.192909883593461018e+01 8.826741728499223427e+01
-3.021808974612461896e+01 -5.894699635087687284e+01 8.737163964528099314e+01
-3.403793979572290596e+01 -5.473281359071620500e+01 8.654826516982689100e+01
-3.165163465043863766e+01 -5.386710988505399200e+01 9.095618684612213656e+01
-3.176043655829811030e+01 -5.063330326724235420e+01 9.368916218471485990e+01
-3.495417777370710155e+01 -4.707682591977663833e+01 9.406019897110127204e+01
-3.754657286905603542e+01 -4.520039041441367544e+01 9.404784645154404643e+01
-3.965469103875477686e+01 -4.194364907451705449e+01 9.417534173516264673e+01
-4.178312632285495454e+01 -3.784816729665385537e+01 9.464469597379866173e+01
-4.396053464887216933e+01 -3.446508814813387289e+01 9.509015936113837597e+01
-4.657880882715936366e+01 -3.130178550992854980e+01 9.487392735695812007e+01
-4.848319873725867524e+01 -2.940742307147877455e+01 9.490667758118206621e+01
-5.190737323337047826e+01 -2.703568360427061634e+01 9.251860374033594780e+01
-5.479603094534574836e+01 -2.637596946973491185e+01 8.948032739193718044e+01
-5.614163094410069732e+01 -2.464718732125407996e+01 8.697754466577771382e+01
-5.698357307820472784e+01 -2.165758843235079212e+01 7.926823808143967653e+01
-5.869912672195830794e+01 -2.232487244001521276e+01 7.588233558356319008e+01
-6.060851935915427191e+01 -2.469255132717563583e+01 7.250608649655418958e+01
-6.040707980410995503e+01 -2.754144458893910041e+01 6.893643539880986282e+01
-5.766375161719371079e+01 -3.158393309507232516e+01 6.500435485162961413e+01
-5.477642085261190630e+01 -3.679045007644799625e+01 6.241964084124424517e+01
-5.097344330043277694e+01 -4.058541946531971689e+01 6.054522476563761302e+01
-5.278569862413101532e+01 -4.150154146720103654e+01 5.910455549793618957e+01
-4.707477678854525038e+01 -4.349657447991927484e+01 5.778727481739838368e+01
-4.863922192905162944e+01 -4.390609531150516887e+01 5.602458302953709790e+01
-4.721246886759732320e+01 -4.513500577303528871e+01 5.389023008203048448e+01
-4.595299765884779930e+01 -4.079442735270180265e+01 4.922484949830800360e+01
-5.010458814557756568e+01 -4.262251554773763473e+01 5.039364368791893867e+01
-4.840861690213726121e+01 -3.819449044733192977e+01 4.758256817460323873e+01
-4.983528511219201107e+01 -3.680780359971601001e+01 4.652259213491083756e+01
-5.185000942119761191e+01 -3.269127820209058655e+01 4.521915961774629977e+01
-5.394385927861596031e+01 -2.824760309995838270e+01 4.425472050794269308e+01
-5.462982057005471859e+01 -2.388510242704575148e+01 4.247212052079771638e+01
-5.402374276885180393e+01 -2.125125313815215122e+01 4.077760090175888763e+01
-5.396273217128960908e+01 -1.874828988195264401e+01 3.886374516322280215e+01
-5.302324912865044837e+01 -1.542111997193188699e+01 3.723969290491481843e+01
-4.974218212834560404e+01 -1.461286401252431233e+01 3.522808373247039526e+01
-4.847442228789085306e+01 -1.326133986202955839e+01 3.178604188820895615e+01
-4.729164558568238874e+01 -1.631874952752053787e+01 2.874625404563630582e+01
-4.606321569214082956e+01 -1.874719507667396101e+01 2.643851642691879533e+01
-4.354156929854551095e+01 -1.904637167708551715e+01 2.422342473636376781e+01
-4.150976360518682640e+01 -1.757348044696539091e+01 2.205516919956949096e+01
-3.755070872442447438e+01 -1.755012835904244639e+01 2.065300287790023503e+01
-3.337547930777801497e+01 -2.010892679527137261e+01 2.028748592404895135e+01
-3.064892483595344430e+01 -2.295841468157175314e+01 2.008501975874219170e+01
-2.659750900238373106e+01 -2.733916836215485091e+01 1.981921805051501906e+01
-2.347349815511259408e+01 -3.481701328323055122e+01 2.001498716955074997e+01
-2.299374381809710144e+01 -3.985761132048429545e+01 2.211912417011399157e+01
-2.168511007545610880e+01 -4.507240968699642281e+01 2.448268643394567334e+01
-1.950434803552271035e+01 -4.956359249332695072e+01 2.580116392461059149e+01
-2.634434665940169396e+01 -5.075430529573941385e+01 3.397139817605602730e+01
-2.773846514960770548e+01 -5.356161157817473395e+01 3.939010071442748995e+01
-3.063962670094205976e+01 -5.184962549517121033e+01 4.306767708662073346e+01
-3.146167151825973463e+01 -5.310967948459261834e+01 4.580033571188096175e+01
-3.676960502794881336e+01 -4.766040314755582585e+01 4.948793154801592209e+01
-3.551863644496485506e+01 -5.084030026907413458e+01 5.071260603282757984e+01
-3.564891512465634094e+01 -5.151862902340099026e+01 5.156131199828269018e+01
-3.840049601733021234e+01 -4.883173276656458484e+01 5.395861152436987140e+01
-3.965766713060554594e+01 -4.726828824461659906e+01 5.449559458508497300e+01
-3.960660769411607873e+01 -4.768277711169963595e+01 5.622394407972751651e+01
-3.885332575657623977e+01 -4.974003056174234416e+01 6.057357839330870775e+01
-3.871278790726107388e+01 -4.919009881630859127e+01 6.398764693977432216e+01
-3.569566298444017605e+01 -5.521470530074412864e+01 6.762436410535246978e+01
-3.358085929556901306e+01 -5.866122491809818484e+01 6.951719910985707429e+01
-3.177996239682165935e+01 -6.138027115382925558e+01 7.015571948272645386e+01
-3.481636242389097902e+01 -5.682712545055323972e+01 7.556058749503836225e+01
-3.484360265142059632e+01 -5.575504097950903315e+01 8.260597935163764305e+01
