-2.185106525568465941e+01 -4.299418359078680396e+01 2.327114661020277708e+01
-2.036360355840912462e+01 -4.360631720144652945e+01 2.296433424340398233e+01
-1.785708291444034046e+01 -4.373182288116282734e+01 2.177710619612730625e+01
-1.350782369920245429e+01 -4.482655044139033862e+01 2.047065048885201577e+01
-1.242503721770223990e+01 -4.795468023657770118e+01 2.095365091210305764e+01
-8.060581081013708626e+00 -5.296009876271136818e+01 2.182169779554897104e+01
-5.664887440376737970e+00 -5.620870917030629244e+01 2.323488637148398084e+01
-2.260673501208110281e+00 -5.889200969038319045e+01 2.492957279916254265e+01
-1.349307787146656779e+00 -5.945278324351966148e+01 2.535061141461119405e+01
-2.169985134204182486e+00 -6.556457257663277005e+01 3.153309533427977840e+01
-6.842494477380512308e+00 -6.699909523343279716e+01 3.395970512575740941e+01
-9.035786513194345559e+00 -6.859527843130820202e+01 3.774508467362716146e+01
-1.091284617575629312e+01 -7.040673558630197704e+01 4.256315746540485634e+01
-1.682312743446393455e+01 -6.947228637797940110e+01 4.631578621528319673e+01
-1.598278612014449607e+01 -6.475394878120368958e+01 3.656764117466377684e+01
-1.611787209312551283e+01 -5.926587774782990437e+01 3.033308426403277736e+01
-2.165967025428463444e+01 -5.875610907749847911e+01 3.655450985239394868e+01
-2.654894098905517552e+01 -5.718726157858111492e+01 4.173512842321929384e+01
-2.535656977202052076e+01 -5.515609429448352330e+01 3.771631670212104837e+01
-2.521264481357113851e+01 -5.301559364091264115e+01 3.513241489573874787e+01
-2.977909774093451034e+01 -5.249366895365199071e+01 4.219669176037700709e+01
-3.314475650754549463e+01 -4.930411988269423773e+01 4.559709324779873896e+01
-3.600510325322618854e+01 -4.642797701939150556e+01 4.766206435532762953e+01
-3.674722976923906970e+01 -4.559467211628913219e+01 4.817106033600293813e+01
-3.863280134574886659e+01 -4.573193288098991616e+01 5.037406675213469498e+01
-3.891848306263166535e+01 -4.641770372533864020e+01 5.190252058397868495e+01
-3.901523657266036338e+01 -4.627286358938528110e+01 5.143942238611839457e+01
-3.980493799919397446e+01 -4.691701724383221972e+01 5.484573632309343338e+01
-4.031283517817369244e+01 -4.745261718168018206e+01 5.895664705108583803e+01
-4.452968879624843623e+01 -4.256530979132776338e+01 6.015478355108234609e+01
-4.331605183649823232e+01 -4.510214022526776034e+01 5.626530068699571530e+01
-4.273556784076524195e+01 -4.512360138105145779e+01 5.387765927294321955e+01
-4.294864505336748550e+01 -4.335362566832719722e+01 5.137877032871097072e+01
-4.529466527072889193e+01 -4.093451592541589434e+01 5.017876954414623469e+01
-4.923683689752982673e+01 -3.917988310643158911e+01 4.869071716551729878e+01
-4.789873181960849990e+01 -4.231268376889403271e+01 5.145079128980273708e+01
-4.560909239124262626e+01 -4.427137690420425997e+01 5.354829544675521902e+01
-5.061400713521711481e+01 -4.227019919529891467e+01 5.674018028439741101e+01
-4.748152764608435916e+01 -4.233837724377502809e+01 5.787743730295892419e+01
-5.165555535033292500e+01 -4.231859861912244014e+01 5.639119966237922199e+01
-5.109739969901875867e+01 -4.326828058354760742e+01 5.234584832001587529e+01
-5.058235652253954129e+01 -4.183113692081207091e+01 5.019781507734160186e+01
-4.652636873689358765e+01 -3.874952622430481597e+01 4.888588073821006219e+01
-4.876018976599404198e+01 -3.768228472952148422e+01 4.781815178933129573e+01
-5.025015999427460400e+01 -3.803801679836897165e+01 4.775625902012029655e+01
-5.127711351683651486e+01 -3.791334960981441782e+01 4.770511867447180521e+01
-5.276019251001595478e+01 -3.632937937551150753e+01 4.653677467870147666e+01
-5.195728706116215534e+01 -3.620688120050385805e+01 4.639609859650499857e+01
-5.225041566006888161e+01 -3.249987160376042539e+01 4.559509836691995588e+01
-5.290749804661800937e+01 -2.753839494165055157e+01 4.365456933111113358e+01
-5.424464004357697178e+01 -2.362691824297667154e+01 4.229590242425911129e+01
-5.451787256919519109e+01 -2.132397128179934498e+01 4.063626430052363503e+01
-5.418335428558756917e+01 -2.010346025998995856e+01 3.960460535010429339e+01
-5.386699717402748888e+01 -1.701003535592303706e+01 3.711158379325206624e+01
-5.168998116858136882e+01 -1.453309280509216705e+01 3.567331810065161335e+01
-5.632870563698959643e+01 -2.035298413692493114e+01 3.967321901463833456e+01
-6.086244636431872834e+01 -1.756286056635366322e+01 3.806159865635186179e+01
-6.142582540025537696e+01 -2.183272076957138097e+01 4.258941628732736717e+01
-6.353905116081922699e+01 -2.287855173888311811e+01 4.493211015425458754e+01
-6.436823006654290680e+01 -2.448723477229532364e+01 4.762571785608133723e+01
-6.749281816033462178e+01 -2.419781744399432455e+01 5.256717462184087708e+01
-6.756604111510705479e+01 -2.561284289930017621e+01 5.568061486412875638e+01
-6.406146517610767432e+01 -2.664250146319039914e+01 6.012959768096084190e+01
-6.372047754637507921e+01 -2.622332856327767558e+01 6.423927523193515299e+01
-6.065816989437080053e+01 -2.741441829487035875e+01 6.660899143223514329e+01
-5.659696945639131371e+01 -3.114116060686143328e+01 6.477408069907255594e+01
-5.356147992597753671e+01 -3.460888389186305858e+01 6.285035660120547618e+01
-5.070100871517649921e+01 -3.967501997373022959e+01 6.031831519818615561e+01
-5.230960876849344032e+01 -4.096277580427624798e+01 5.854864897583661332e+01
-5.363103666312920836e+01 -3.743197030909755085e+01 6.144229315558595772e+01
-5.668539143245870804e+01 -3.277287472849815231e+01 6.356683098266830712e+01
-5.890867068777417614e+01 -2.818543135615681194e+01 6.698094107331394298e+01
-6.019798937071794853e+01 -2.691505205092954611e+01 6.816117978599459093e+01
-6.254008541709380609e+01 -2.656471762202073705e+01 6.813047626198499529e+01
-5.924158929090859260e+01 -2.368184459439174816e+01 7.310264260541043768e+01
-5.716160933492874108e+01 -2.127077792062209483e+01 7.792631846746394331e+01
-5.648666388631123425e+01 -2.201126408499419540e+01 8.285456823480240018e+01
-5.644084185341475290e+01 -2.368479299020214057e+01 8.672069880881440440e+01
-5.459234878460189577e+01 -2.393940343090025635e+01 9.082362619689297389e+01
-5.323481565749534639e+01 -2.395879258647579491e+01 9.270840042687996174e+01
-5.071595846098568927e+01 -2.225034304856154677e+01 9.578228719656340218e+01
-4.966126574552332329e+01 -2.252220064194762017e+01 9.633398960282079315e+01
-4.506197658208768075e+01 -3.147800610969710533e+01 9.584761135716030367e+01
-4.190580298271044057e+01 -3.729041715789941236e+01 9.494188650729529400e+01
-3.980364453225132593e+01 -4.353889429720453563e+01 9.356947719917570794e+01
-3.220002349661223207e+01 -5.347902366808767738e+01 9.089526507099117225e+01
-2.958299510807000843e+01 -5.823706734704933297e+01 8.964439717713025857e+01
-2.581621292195981709e+01 -6.346106524228679291e+01 8.916087204980817660e+01
-2.205134959065634348e+01 -7.004048269531091364e+01 8.441655493467214910e+01
-2.951692166374299831e+01 -6.384251259181797877e+01 7.727013288108173583e+01
-3.326454677830189866e+01 -5.818359391575683048e+01 8.044615650657556216e+01
-3.091281161863577864e+01 -6.108182365980184159e+01 8.107596296821657234e+01
-3.225499777922797762e+01 -6.067000099796132417e+01 6.897707807068491093e+01
-2.794467705750834341e+01 -6.621974954924144185e+01 7.139569755095408254e+01
-2.266394639277702083e+01 -7.161600246307085627e+01 7.312563910226549524e+01
-1.898901132843524664e+01 -7.323898783805077528e+01 6.108259817023508731e+01
-2.110275242061121759e+01 -6.913373246297612695e+01 5.108510254479301693e+01
-1.871774466311970286e+01 -7.108773247846022514e+01 5.236076988354056994e+01
-2.177281734023537751e+01 -6.403023705391700560e+01 4.239055164642149975e+01
-1.918496503564244193e+01 -6.779636723116527719e+01 4.509135508984149965e+01
