-2.989057047358303976e+01 -5.706634716488002823e+01 9.002438718492385306e+01
-3.000257011029961518e+01 -5.696740572132165426e+01 8.992832889673263708e+01
-3.030559730330989510e+01 -5.684261303812149890e+01 8.978835762551852895e+01
-3.046692348692916141e+01 -5.692298237161287489e+01 8.958524318303011569e+01
-3.065138781869423212e+01 -5.694507416457918225e+01 8.926401258726059496e+01
-3.085012141367673166e+01 -5.693052275175534760e+01 8.888942284081508660e+01
-3.097963735715239864e+01 -5.693022259441363531e+01 8.867297048463979081e+01
-3.148181583944737838e+01 -5.674450908926530701e+01 8.841306136351931855e+01
-3.164428091137041577e+01 -5.667647900588514176e+01 8.801776825219826605e+01
-3.193211856962798834e+01 -5.646039907619768883e+01 8.802694340264088169e+01
-3.229509426738722766e+01 -5.610515058610940287e+01 8.772676864544018827e+01
-3.235296654491931179e+01 -5.606775847089852505e+01 8.772508093921783257e+01
-3.270208231216217598e+01 -5.572811375304382864e+01 8.772385017186820733e+01
-3.274946417200590076e+01 -5.571479896582826541e+01 8.765021658070122612e+01
-3.277564982632657120e+01 -5.566782977045562575e+01 8.768938173524543345e+01
-3.305921079333141677e+01 -5.549891096842401339e+01 8.745016173822114069e+01
-3.316616020628609363e+01 -5.550792843615209904e+01 8.722365109818542805e+01
-3.332203423336801507e+01 -5.557481500692671261e+01 8.694818662569173284e+01
-3.336815109000927748e+01 -5.575663766161380863e+01 8.622533024295012183e+01
-3.349436606675196515e+01 -5.589489473986094481e+01 8.607356730034098291e+01
-3.344860087983218477e+01 -5.625640699050609328e+01 8.535482854355814197e+01
-3.353685436431784694e+01 -5.629554420682876525e+01 8.490129180291410194e+01
-3.352483432848362099e+01 -5.656158007082433414e+01 8.440331443811555800e+01
-3.396925214542400795e+01 -5.644852784866367301e+01 8.338479365807188515e+01
-3.412209540502186655e+01 -5.649993693386358018e+01 8.278273168747227828e+01
-3.425377466398704485e+01 -5.648968556852770462e+01 8.221627150775975679e+01
-3.435575625775128117e+01 -5.652502162629787108e+01 8.153111758773206930e+01
-3.448851160151181716e+01 -5.653652682950445296e+01 8.121149511349449313e+01
-3.449704440925351889e+01 -5.643849718110925551e+01 8.120351196200749655e+01
-3.463711652090650261e+01 -5.644511665031205894e+01 8.126455623117522009e+01
-3.475790182935068628e+01 -5.621567706838499134e+01 8.105914001002179248e+01
-3.505654290710945986e+01 -5.588682029257341810e+01 8.103396423097888146e+01
-3.514854759123753070e+01 -5.587978533123055058e+01 8.100311202393436361e+01
-3.513391588238762608e+01 -5.589652021010181215e+01 8.098653785766487090e+01
-3.521662280527431221e+01 -5.576387995272727949e+01 8.099976543675188623e+01
-3.522487041707914557e+01 -5.576328859645104785e+01 8.100437311039991073e+01
-3.516224496294998403e+01 -5.576177415293517470e+01 8.108686308818823818e+01
-3.518666962065717030e+01 -5.569146800388392649e+01 8.126050368154938042e+01
-3.538737082799370626e+01 -5.537852427250146548e+01 8.180204229896730794e+01
-3.551984933924318000e+01 -5.516730970918405319e+01 8.204997928926263739e+01
-3.565761139480109421e+01 -5.494143700645417994e+01 8.225554013732539715e+01
-3.569241513111386155e+01 -5.485900306410064786e+01 8.241687515867852198e+01
-3.576766914814959364e+01 -5.475644474962814456e+01 8.296972635901238391e+01
-3.568119568601704827e+01 -5.473474564717974999e+01 8.314734585875066841e+01
-3.565819057160619820e+01 -5.462396825037370718e+01 8.314914401688815815e+01
-3.568348078297265147e+01 -5.446857464425460194e+01 8.390203441177391142e+01
-3.568556916026101078e+01 -5.428759594554060186e+01 8.459841952520150699e+01
-3.552637519334645333e+01 -5.414431046637179179e+01 8.502839694915314794e+01
-3.551252141013888775e+01 -5.405565985104902893e+01 8.515998681987980490e+01
-3.545057987740192118e+01 -5.397664297273865941e+01 8.556400390789008270e+01
-3.566347424826632562e+01 -5.371206899270526947e+01 8.605767064048427528e+01
-3.571692651972095689e+01 -5.355651066147237316e+01 8.627682205408632399e+01
-3.554046662516692834e+01 -5.344625708811327058e+01 8.674879584372729369e+01
-3.548222984677944680e+01 -5.334872493357892154e+01 8.696194039958868416e+01
-3.555119553136714217e+01 -5.314664267990133339e+01 8.710923936727613182e+01
-3.571150708368122650e+01 -5.280758773701052178e+01 8.762034415140192323e+01
-3.580347746148265742e+01 -5.253750620233159907e+01 8.774269324396777847e+01
-3.584153576523635820e+01 -5.246685207292279074e+01 8.796825412356088236e+01
-3.592997245834948217e+01 -5.219312492279919979e+01 8.834906294882398470e+01
-3.586673609501758619e+01 -5.208598205985913410e+01 8.851065011483296985e+01
-3.567094435348431603e+01 -5.205620445120604245e+01 8.884695798430516334e+01
-3.507919471880336459e+01 -5.206399917050788417e+01 8.947731132669105136e+01
-3.392818979582393979e+01 -5.247740925193579642e+01 9.006910655926026266e+01
-3.337858608694831730e+01 -5.255617524350515168e+01 9.076457500925243949e+01
-3.294005109789340224e+01 -5.265984703729969851e+01 9.095523336057317465e+01
-3.272658663673006174e+01 -5.258014280414261066e+01 9.126765812052190086e+01
-3.249295202741778610e+01 -5.241333837571153254e+01 9.168087786914497883e+01
-3.238053287570096472e+01 -5.230754625510502365e+01 9.182449106559602114e+01
-3.240092184007865228e+01 -5.192746632304255172e+01 9.220646395010703600e+01
-3.247410889809289358e+01 -5.171128226576530551e+01 9.221933977049047826e+01
-3.262035427943061450e+01 -5.117118880476721188e+01 9.248782077652867883e+01
-3.274584986502887318e+01 -5.076590788913830465e+01 9.269324686193999696e+01
-3.314634840628939116e+01 -5.021873847529155910e+01 9.302745408898999813e+01
-3.340393512808140031e+01 -4.975877217971356004e+01 9.308596295428378653e+01
-3.382878087216894869e+01 -4.933715531815420263e+01 9.299185633062234047e+01
-3.403167920831515403e+01 -4.926476307980072988e+01 9.297363661250119549e+01
-3.436269019188388540e+01 -4.895808459910654165e+01 9.305202585201072907e+01
-3.468317842457084055e+01 -4.861151876346053768e+01 9.296928553495013148e+01
-3.503055381752663777e+01 -4.840840327296245960e+01 9.315686208648071442e+01
-3.539201815701100884e+01 -4.795192886030292811e+01 9.332731092424273811e+01
-3.556418314284601934e+01 -4.794227765836626531e+01 9.325477094663960997e+01
-3.568758428359126356e+01 -4.770296481026679203e+01 9.307004513436118032e+01
-3.600471152980357203e+01 -4.759221071743888842e+01 9.310078739023924754e+01
-3.641522197329489074e+01 -4.730069815664938915e+01 9.329278030227828822e+01
-3.702350962563799897e+01 -4.681133438470681085e+01 9.339122100670624604e+01
-3.764742012667167614e+01 -4.629027579922524183e+01 9.347929436103777334e+01
-3.779447430302170119e+01 -4.605739529133626320e+01 9.349622287630609208e+01
-3.795748148325075988e+01 -4.579402342312005203e+01 9.367050240695539287e+01
-3.805403191936150620e+01 -4.559109011645318787e+01 9.353881321501580715e+01
-3.824341049114511293e+01 -4.547992904611186304e+01 9.356550946244237821e+01
-3.849200169358238099e+01 -4.535647443578898219e+01 9.342773010930363853e+01
-3.885824410206907942e+01 -4.513832174858424651e+01 9.338060783709465795e+01
-3.915243390114090971e+01 -4.487302984703109132e+01 9.332036458332254369e+01
-3.952297716898976887e+01 -4.465093135294210924e+01 9.303770873153712273e+01
-3.958617943270365913e+01 -4.458388114308013428e+01 9.293881691274918921e+01
-3.959738618763584839e+01 -4.467026568646815576e+01 9.296448345797193724e+01
-3.959715371272601203e+01 -4.458756697395244828e+01 9.311982198326018079e+01
-3.959603869111967356e+01 -4.455730810934710462e+01 9.307808356439250019e+01
-3.966985245457148324e+01 -4.442964230822627769e+01 9.300703623702634104e+01
-3.967101627265827801e+01 -4.422093982927412981e+01 9.319502719303295635e+01
-3.964962949904429479e+01 -4.418014134804644755e+01 9.330832316602345600e+01
-3.966755898721130791e+01 -4.401263381926685270e+01 9.346205363294370727e+01
-3.970775998994260192e+01 -4.371304436451617903e+01 9.347701476816109789e+01
-3.988501353835384577e+01 -4.343932898775068452e+01 9.335370047908781999e+01
-4.015388894011827858e+01 -4.319250535529027957e+01 9.323958815394826161e+01
-4.030656190167883324e+01 -4.283308007993355204e+01 9.348541312168481454e+01
-4.029136414283854606e+01 -4.271606693661243526e+01 9.332669046942578461e+01
-4.039882118173036929e+01 -4.245663230573558167e+01 9.358003055343669985e+01
-4.044024301654246756e+01 -4.217612594309906626e+01 9.368686915035004859e+01
-4.049503671990638054e+01 -4.190974462952794966e+01 9.362211497900034374e+01
-4.058847606827900734e+01 -4.180964070128231924e+01 9.383114295842483443e+01
-4.056101975191953102e+01 -4.154152227532307506e+01 9.394568154914463776e+01
-4.053571190252692702e+01 -4.123643942509374938e+01 9.406135861816960642e+01
-4.052234989731418580e+01 -4.101855472517559065e+01 9.429164936545248565e+01
-4.073372094870677529e+01 -4.064517625607777518e+01 9.432901112481386008e+01
-4.076112515210542142e+01 -4.045571058274134657e+01 9.422767212756502886e+01
-4.072619185944175513e+01 -4.020752046022255399e+01 9.429088127739987613e+01
-4.076303376223312114e+01 -4.018244375450177586e+01 9.444501817150239731e+01
-4.073169974208713029e+01 -4.001849146350446063e+01 9.416556873457443544e+01
-4.063181310548809222e+01 -3.984923253519713171e+01 9.437393898273239756e+01
-4.046980633258678495e+01 -3.973161897481111282e+01 9.448207708895529322e+01
-4.048595052133684646e+01 -3.957120370026501632e+01 9.458396530647246436e+01
-4.046535474679375000e+01 -3.935977245485855747e+01 9.467247366324568247e+01
-4.054144199181668284e+01 -3.907944501949731375e+01 9.464125347432900526e+01
-4.058540755565124414e+01 -3.870838523256946928e+01 9.478445131575472260e+01
-4.057611119803951283e+01 -3.863458316721533947e+01 9.487852491233115870e+01
-4.064385781218400950e+01 -3.862446716197837304e+01 9.470059482176543497e+01
-4.060782845095997118e+01 -3.865090776084656454e+01 9.466027382043625948e+01
-4.066173554580154814e+01 -3.859887711552420342e+01 9.487902692283432771e+01
-4.070029544597623783e+01 -3.862669608574924496e+01 9.463811554606013488e+01
-4.069003197150473738e+01 -3.863802860670159589e+01 9.482054066786190560e+01
-4.067997676922125549e+01 -3.866331520264935762e+01 9.474985309538055844e+01
-4.072628145063063698e+01 -3.860806188779514514e+01 9.481566588635132575e+01
-4.067327819514831333e+01 -3.867250543409602415e+01 9.480177790690368056e+01
-4.074032578040447561e+01 -3.859002014626628352e+01 9.485445458394292473e+01
-4.072540480992670098e+01 -3.860750874253494658e+01 9.483331509950858162e+01
-4.072174649212362851e+01 -3.861298751962414144e+01 9.484840891359544912e+01
-4.072916036934400807e+01 -3.857044159175870846e+01 9.491090976818713898e+01
-4.071695365447970971e+01 -3.863044052910851178e+01 9.474198825560870318e+01
-4.073422137743553861e+01 -3.859669586047306211e+01 9.489432186610656572e+01
-4.078150488721647093e+01 -3.859025948126287631e+01 9.490965283522405116e+01
-4.063106708007406098e+01 -3.861151502621163445e+01 9.488152462052426017e+01
-4.069765944220856113e+01 -3.866520403725053256e+01 9.480325010612136793e+01
-4.072158466922135744e+01 -3.864216895855020084e+01 9.489684429529961562e+01
-4.065844224607344159e+01 -3.863738854515042931e+01 9.486161538016199302e+01
-4.079086944456875585e+01 -3.860978950435787738e+01 9.481948946490547314e+01
-4.072365785318073961e+01 -3.861633390054242909e+01 9.478500177843989150e+01
-4.074145998306430982e+01 -3.863147504513159447e+01 9.493011675588377329e+01
-4.066100692258679317e+01 -3.864193168817257629e+01 9.481005370976208724e+01
-4.068368284837256255e+01 -3.857276211166521307e+01 9.481825161312531236e+01
-4.100196937517887363e+01 -3.825640419931858105e+01 9.506317908157348029e+01
-4.102565130626301482e+01 -3.825993355939777985e+01 9.505263385581361035e+01
-4.111558683722255836e+01 -3.809926378864440721e+01 9.519549911521085050e+01
-4.157249073051094967e+01 -3.793809694623865880e+01 9.500102570266994917e+01
-4.171523465439643985e+01 -3.779738220169423357e+01 9.488799099162997663e+01
-4.180541474204320451e+01 -3.764980959240733682e+01 9.506259440969006391e+01
-4.240604118424008107e+01 -3.719967785612163880e+01 9.492066224738027813e+01
-4.275017989839450649e+01 -3.690788585406556876e+01 9.492338673076369560e+01
-4.279649070984609693e+01 -3.687957580502961719e+01 9.495066694006527541e+01
-4.297776903133399884e+01 -3.664886710564093164e+01 9.478666219443721275e+01
-4.311859183380090599e+01 -3.633283340287118790e+01 9.484346204240591760e+01
-4.325094181997105380e+01 -3.609768203447276846e+01 9.501828387959653810e+01
-4.322234934979969978e+01 -3.603696488569147505e+01 9.500804196756848796e+01
-4.386829579576858151e+01 -3.541192675348719376e+01 9.488677651591183349e+01
-4.432077026123324259e+01 -3.524098363766870534e+01 9.447622027103216169e+01
-4.433263928564295497e+01 -3.504722284296917678e+01 9.465752978482123581e+01
-4.435362407240420879e+01 -3.502412841285519107e+01 9.457581732432277022e+01
-4.428211937500721262e+01 -3.499617589432165232e+01 9.450676923073456237e+01
-4.427590997048910282e+01 -3.496123848590070793e+01 9.469310864480644341e+01
-4.428499206657319576e+01 -3.465295430004192667e+01 9.493713237160022800e+01
-4.432569271799764721e+01 -3.441550307236690287e+01 9.492688878471449243e+01
-4.457701912007206602e+01 -3.395905655972745762e+01 9.505055556882348355e+01
-4.514513382354161308e+01 -3.354097227751299215e+01 9.493714475764249983e+01
-4.527593309096415197e+01 -3.339360467926786669e+01 9.490311402302540955e+01
-4.548372294124324355e+01 -3.331122633859399684e+01 9.478234753488209208e+01
-4.550160373652944656e+01 -3.328671970081234122e+01 9.482095147151494530e+01
-4.557190212519817862e+01 -3.313893061611992152e+01 9.480415699383320316e+01
-4.606691152174916226e+01 -3.278140044529106945e+01 9.465373467905419602e+01
-4.640747634828684198e+01 -3.243531716718013058e+01 9.461031219823576066e+01
-4.657748134673489915e+01 -3.235088462257743913e+01 9.446417568862420922e+01
-4.686359429742371674e+01 -3.203375301821591847e+01 9.455931086410510034e+01
-4.692344895837051411e+01 -3.202917965775782250e+01 9.449938554986601957e+01
-4.691903431653855705e+01 -3.202744804205235596e+01 9.458745140724090561e+01
-4.687218134864717456e+01 -3.200204573765188343e+01 9.446795427670053868e+01
-4.688765278841136563e+01 -3.196903804313410546e+01 9.452673801940932208e+01
-4.743404273670683580e+01 -3.160836878302444575e+01 9.442823970364247543e+01
-4.751962416030589509e+01 -3.144507752851154692e+01 9.444389970712313698e+01
-4.766592618837850637e+01 -3.116524072670051737e+01 9.460995349883000927e+01
-4.777964841613444236e+01 -3.108205304656320322e+01 9.466350557971736634e+01
-4.775947644530436520e+01 -3.083233504629924937e+01 9.470900872811989757e+01
-4.783505856336945783e+01 -3.058903552886448551e+01 9.475137520718567430e+01
-4.800212765845979845e+01 -3.021757647025822280e+01 9.476965899234301105e+01
-4.813286562219237652e+01 -3.001740814886352382e+01 9.470250921712954550e+01
-4.830939721061571390e+01 -2.951365712201851466e+01 9.483481899297748896e+01
-4.845289921355918494e+01 -2.924351315585710154e+01 9.497286316155691566e+01
-4.849843279596923651e+01 -2.925678897261337852e+01 9.489162399467522846e+01
-4.844076551241315087e+01 -2.924717133417192372e+01 9.500479113982100898e+01
-4.853264441064931844e+01 -2.918136636119089644e+01 9.501926077803045700e+01
-4.873188013999951806e+01 -2.874625092014906613e+01 9.498445371247089497e+01
-4.883151920060486617e+01 -2.863953251668851863e+01 9.494735336377993917e+01
-4.903129352095352544e+01 -2.821854615065586813e+01 9.508082672550449388e+01
-4.907823560025026666e+01 -2.825120125091643786e+01 9.503636308932755128e+01
-4.921873753907401294e+01 -2.812133582290755385e+01 9.505530025514144654e+01
-4.918712973673044075e+01 -2.772178219790907860e+01 9.519716284655623895e+01
-4.929803150780257681e+01 -2.759959010293135862e+01 9.525097547325094638e+01
-4.935089851665297545e+01 -2.733696140903396099e+01 9.530768185996339525e+01
-4.928586424299422220e+01 -2.735617875126428089e+01 9.529406051244768605e+01
-4.936786258964735907e+01 -2.729411076099376032e+01 9.521252146170832020e+01
-4.941560548603936809e+01 -2.721380147894205948e+01 9.521372477491263453e+01
-4.949785651379917795e+01 -2.720552333072043893e+01 9.527418625651444017e+01
-4.966984062587748383e+01 -2.665785585887658726e+01 9.508041810071745203e+01
-4.985941443789656091e+01 -2.647173081879861911e+01 9.523274477493100676e+01
-4.987863254967101057e+01 -2.630734493778385286e+01 9.521741254255630338e+01
-4.995743288621589784e+01 -2.630943263886604200e+01 9.521629299463529605e+01
-5.001672045662087385e+01 -2.617658559748173275e+01 9.524956108676792610e+01
-4.993446512771417645e+01 -2.615146912840316418e+01 9.530901407440546791e+01
-5.017388074480439286e+01 -2.582646261777324526e+01 9.504395615008297682e+01
-5.026793221633974440e+01 -2.572907464060182292e+01 9.520324760653807061e+01
-5.028534439132752709e+01 -2.574441338479101660e+01 9.508061558445342598e+01
-5.026475773213431353e+01 -2.567964545610806226e+01 9.530408558072645064e+01
-5.029042776428877914e+01 -2.568317478854942237e+01 9.527192455842191521e+01
-5.032871000753786461e+01 -2.571241368665874916e+01 9.501832100907313361e+01
-5.044575775266544326e+01 -2.564116910048358022e+01 9.503831980269751512e+01
-5.055730872720481273e+01 -2.547291033533440441e+01 9.506239550584746212e+01
-5.091864483337471370e+01 -2.526416072437399407e+01 9.494898980097491403e+01
-5.093863397543317717e+01 -2.512009614329201668e+01 9.502054813811923850e+01
-5.106772594841602597e+01 -2.493218875055856643e+01 9.495753734993377293e+01
-5.117918304050326128e+01 -2.474728055838812679e+01 9.485720878916436050e+01
-5.148382889374708782e+01 -2.433661856142776969e+01 9.472416168768631906e+01
-5.209181922812899757e+01 -2.381915998951092206e+01 9.444508409069271693e+01
-5.233344625397798211e+01 -2.376502554602183181e+01 9.399233152751889975e+01
-5.236996657507901887e+01 -2.377329050370269670e+01 9.413008669682449181e+01
-5.242551353292284944e+01 -2.383274685041311614e+01 9.402231636358101241e+01
-5.243892085766887590e+01 -2.379426782020021847e+01 9.407994028582152168e+01
-5.243027090586983263e+01 -2.378190657630545957e+01 9.407774653621822836e+01
-5.235802163646398810e+01 -2.381124303223947436e+01 9.401412891994073107e+01
-5.270169625644619771e+01 -2.351383347821831649e+01 9.393253701913909026e+01
-5.333017330302388359e+01 -2.324564098132299250e+01 9.324414025469309308e+01
-5.324037284983792517e+01 -2.319583054120460019e+01 9.326595465824607345e+01
-5.324417819643437610e+01 -2.330529849838245582e+01 9.323574968373259253e+01
-5.332012110069608468e+01 -2.318339078956017829e+01 9.321181315319245186e+01
-5.336359869757914964e+01 -2.313995011524735901e+01 9.335913960993639193e+01
-5.342680194737880583e+01 -2.310787306794406959e+01 9.319088333603940555e+01
-5.409990199496331797e+01 -2.266333498592081241e+01 9.275491848118463167e+01
-5.436439336977645098e+01 -2.256522073590929267e+01 9.251880021204260629e+01
-5.431235719932008976e+01 -2.271863113345665397e+01 9.248417261821282409e+01
-5.435183132089011337e+01 -2.266527479633077746e+01 9.251116015634170253e+01
-5.437293509492708665e+01 -2.265988607911259578e+01 9.233241777969715258e+01
-5.442363477749299250e+01 -2.277272755334917065e+01 9.236173270022072757e+01
-5.459176946256707197e+01 -2.284819319380460456e+01 9.187310246598030972e+01
-5.483069165761985175e+01 -2.287212579552254965e+01 9.169094213138396299e+01
-5.492376731459398798e+01 -2.281987135379438314e+01 9.168973641781622064e+01
-5.510547338684773422e+01 -2.275998249422355002e+01 9.151670563167158434e+01
-5.527289783723580285e+01 -2.268259465355811244e+01 9.141933650195051086e+01
-5.546653725557143844e+01 -2.263040762589116639e+01 9.113877111066585712e+01
-5.542334339466472670e+01 -2.262129879610910166e+01 9.122963186231913824e+01
-5.571920068313139041e+01 -2.237636480945133144e+01 9.095686827913118577e+01
-5.621856118267950819e+01 -2.210339933027148618e+01 9.044605932596437015e+01
-5.634718839749049835e+01 -2.208518293609665761e+01 9.005665126117492036e+01
-5.639104606294587541e+01 -2.208181857928587988e+01 9.025887772489886629e+01
-5.638354659128394530e+01 -2.216980619661597984e+01 9.007946691667893901e+01
-5.635126081482061977e+01 -2.218180158671657409e+01 9.015436937246909110e+01
-5.631827073556198116e+01 -2.240638212708103083e+01 9.015576339497761182e+01
-5.630658635908578447e+01 -2.261013818190718894e+01 8.997242522563192324e+01
-5.640151269111400723e+01 -2.286531888515878563e+01 8.957209963171590061e+01
-5.639802536535242439e+01 -2.288050696710024567e+01 8.954483237360773273e+01
-5.641744543913446819e+01 -2.289007196235110086e+01 8.948142185214032907e+01
-5.642113075659543142e+01 -2.288384035604616429e+01 8.953227760258391754e+01
-5.648437089256842114e+01 -2.291223876192373154e+01 8.952003633146819084e+01
-5.649357753788473246e+01 -2.293970022234714179e+01 8.947693434444363447e+01
-5.675973272727924979e+01 -2.324085043547773921e+01 8.793612270713083490e+01
-5.712824376196262222e+01 -2.323492365909294222e+01 8.600494383016530264e+01
-5.688790018931283754e+01 -2.337948531535170105e+01 8.564785471008622153e+01
-5.686854655633717925e+01 -2.340317929356064042e+01 8.550734969886048020e+01
-5.686656675127802885e+01 -2.343119085724117667e+01 8.547905445741639596e+01
-5.695486812074130967e+01 -2.337751800351009024e+01 8.557655006685240551e+01
-5.688685053834696959e+01 -2.343102661751458982e+01 8.545902026396652218e+01
-5.710866432120546676e+01 -2.307861454743721197e+01 8.492601518391575155e+01
-5.716641022025548580e+01 -2.174838415287388216e+01 8.290523086795201380e+01
-5.709733369569539008e+01 -2.173173051355195184e+01 8.294777553815879401e+01
-5.706000421580640136e+01 -2.174576537766660067e+01 8.290965724830630279e+01
-5.705442364428284918e+01 -2.174021748916891283e+01 8.300020762107965311e+01
-5.704794848246233130e+01 -2.172680171451565911e+01 8.292384742159788402e+01
-5.700503524933094468e+01 -2.170798091525216478e+01 8.297040473449305864e+01
-5.701687444689783035e+01 -2.170656292059027237e+01 8.305962393053027881e+01
-5.703649234996387918e+01 -2.166865821851860119e+01 8.291260407454069536e+01
-5.700525343701769998e+01 -2.173802703844319240e+01 8.276756784548706491e+01
-5.709341231210225942e+01 -2.161063974613745131e+01 8.269227868624057010e+01
-5.706952757482535077e+01 -2.156844340743049315e+01 8.261956252224240416e+01
-5.705083731893536481e+01 -2.149224961602033090e+01 8.169825906132268756e+01
-5.702812959423888373e+01 -2.156821559078713335e+01 8.154100231915253971e+01
-5.702534326990284796e+01 -2.156772702656280671e+01 8.155839789290530462e+01
-5.702206912932894767e+01 -2.160486155577950740e+01 8.118645401398953254e+01
-5.698405464705247425e+01 -2.160750546711062725e+01 8.104346138011692346e+01
-5.701022598707855593e+01 -2.166052816398791947e+01 8.084962194444301531e+01
-5.696547680656813384e+01 -2.163608948140966959e+01 8.069871345413594099e+01
-5.693225553268759143e+01 -2.180797748324425811e+01 8.012421618993266748e+01
-5.695243353162317135e+01 -2.182238028356835002e+01 8.008818926399430893e+01
-5.689323973437870308e+01 -2.178913038788425638e+01 8.012356133788807711e+01
-5.696160392888582180e+01 -2.189818888761340077e+01 7.973748265584481487e+01
-5.696943698024720959e+01 -2.187830247089732438e+01 7.990379857769971750e+01
-5.698193159046881107e+01 -2.185589657429977706e+01 7.964426333486085241e+01
-5.699266990771997143e+01 -2.189891989142142847e+01 7.945819068150717612e+01
-5.716786295731505874e+01 -2.189824489439729405e+01 7.897280322641904604e+01
-5.716315624070828960e+01 -2.185371507854125639e+01 7.899985646737809475e+01
-5.722659685257969642e+01 -2.191413177902830967e+01 7.852647822259518762e+01
-5.726340602377163691e+01 -2.184468075871507153e+01 7.866890334882305069e+01
-5.735454089165015290e+01 -2.187396629275031046e+01 7.833366493871972125e+01
-5.731896411549094239e+01 -2.187356570781031451e+01 7.843760105939713867e+01
-5.733269097018098392e+01 -2.181744986652404350e+01 7.847723050948843593e+01
-5.735929020245336574e+01 -2.190241907328726256e+01 7.836786698774449178e+01
-5.755607189867598805e+01 -2.209351590233296747e+01 7.764628311559908980e+01
-5.754510719803320029e+01 -2.207196484978049966e+01 7.764225313086240021e+01
-5.759042031672286299e+01 -2.205302266733184524e+01 7.762202326645024186e+01
-5.761626360082907894e+01 -2.209145405275086205e+01 7.742286597327006348e+01
-5.780076182951513886e+01 -2.214150517315118805e+01 7.724185322475773319e+01
-5.780995606647596929e+01 -2.207731334691141001e+01 7.736937681004269507e+01
-5.784220762933186677e+01 -2.207040831336553310e+01 7.731144688496351591e+01
-5.792099901286425734e+01 -2.211068074294593089e+01 7.717904932969372567e+01
-5.818953446466296953e+01 -2.197037750187496385e+01 7.693566940120103936e+01
-5.824041570844601523e+01 -2.194774465387115470e+01 7.692289768798286786e+01
-5.819716676936044308e+01 -2.189316412010435897e+01 7.700300125209014368e+01
-5.818904387863943839e+01 -2.195827745121260932e+01 7.692949844412942184e+01
-5.823679742968614903e+01 -2.192782712217820063e+01 7.689356530187410499e+01
-5.862231752489240932e+01 -2.178580945412346637e+01 7.667427086343468545e+01
-5.862616703046008126e+01 -2.186012487816850580e+01 7.651601327583284728e+01
-5.866104191895068709e+01 -2.191209219615325310e+01 7.647260551053818745e+01
-5.864539748993468038e+01 -2.185344804455269241e+01 7.648562235356121164e+01
-5.866148237142205346e+01 -2.186037163056073496e+01 7.657404282889274327e+01
-5.875062447976892344e+01 -2.180067394939709402e+01 7.649273802518246157e+01
-5.873864580231557397e+01 -2.178865993914689625e+01 7.650578372493350798e+01
-5.874260312557487396e+01 -2.176101180813407154e+01 7.647577390335754899e+01
-5.877896329596934777e+01 -2.186615387523295340e+01 7.636208765189485348e+01
-5.879070058593691073e+01 -2.178911108749412051e+01 7.659226321653886771e+01
-5.882781664934324084e+01 -2.178575347720209265e+01 7.651648776376123351e+01
-5.900984334086826522e+01 -2.177474456925602908e+01 7.637535809297310152e+01
-5.908893378325651469e+01 -2.180998987648524690e+01 7.623891620390190837e+01
-5.902880725192655831e+01 -2.174477974432807059e+01 7.634277043889323977e+01
-5.906140376846726525e+01 -2.174279394074613947e+01 7.643340181850044246e+01
-5.906073420532999307e+01 -2.179642738675494229e+01 7.628546005171142497e+01
-5.908911316416463677e+01 -2.179140797126456164e+01 7.628134800265706872e+01
-5.902845023902141719e+01 -2.175047459366754765e+01 7.629145861975371190e+01
-5.908892884828873804e+01 -2.174487971088507265e+01 7.631952558107946061e+01
-5.907268007525006226e+01 -2.171376526606951529e+01 7.626793678012518285e+01
-5.906230638214687900e+01 -2.168871087671021769e+01 7.640050918893052767e+01
-5.912058373630016206e+01 -2.170804550677473799e+01 7.628374682692788156e+01
-5.912763083332813352e+01 -2.156861899806034444e+01 7.653133076429685389e+01
-5.909925536595959272e+01 -2.160242934706099049e+01 7.641543290130812238e+01
-5.910096230669052630e+01 -2.165198749503804265e+01 7.632716203906625196e+01
-5.906300301790725626e+01 -2.164825730087346756e+01 7.643178212852217257e+01
-5.912504660078112551e+01 -2.164290317404231700e+01 7.641096968796091460e+01
-5.911494873361349534e+01 -2.162201737041272054e+01 7.641512537486119072e+01
-5.935732346354435407e+01 -2.170456473594492763e+01 7.608232589023123182e+01
-5.948278672742956985e+01 -2.174072572203101572e+01 7.607268569742041109e+01
-5.958359718851422571e+01 -2.173146397301161414e+01 7.600115708110342894e+01
-5.964044479611748528e+01 -2.183754853072139213e+01 7.577982293915465561e+01
-5.969879568433876926e+01 -2.189395109391693950e+01 7.569781808834864023e+01
-5.974697214328445227e+01 -2.201464814168474504e+01 7.552590485328460090e+01
-5.980819457667104899e+01 -2.211192556518994934e+01 7.547026184715809904e+01
-5.982760926342046304e+01 -2.220561162063449956e+01 7.532064930931687741e+01
-5.992006898919193247e+01 -2.226300933998703613e+01 7.520000022246085791e+01
-5.987705791533078070e+01 -2.245998578755239805e+01 7.507806876063818891e+01
-5.998636334038456397e+01 -2.275931586637989312e+01 7.473265736269354420e+01
-5.998673351018580036e+01 -2.300697792500602645e+01 7.454213234497819940e+01
-5.992212735138882351e+01 -2.309683562399942502e+01 7.449061757591925925e+01
-5.995365582997919063e+01 -2.314690452492567374e+01 7.439687762624407696e+01
-6.011146958360804859e+01 -2.320372698406981726e+01 7.425029621858561768e+01
-6.031674377292597455e+01 -2.327730783042198937e+01 7.406177426175372602e+01
-6.059669080107612871e+01 -2.343488805781106521e+01 7.385792073756624632e+01
-6.063203577613914064e+01 -2.337239481387825890e+01 7.395850369163235882e+01
-6.063679505419109717e+01 -2.341656244897546912e+01 7.377104030464261086e+01
-6.073273660925202222e+01 -2.340494876954898018e+01 7.382481976304438831e+01
-6.125712748212993830e+01 -2.342444091197791067e+01 7.358450356970115536e+01
-6.129524056317494285e+01 -2.340063643921359926e+01 7.354404525549466598e+01
-6.132222301521420604e+01 -2.342809140259214473e+01 7.346385990202338689e+01
-6.144258587253471404e+01 -2.329015748987717416e+01 7.369174713217830686e+01
-6.152200911960684948e+01 -2.323052129670975319e+01 7.362881212657271135e+01
-6.163576540229963285e+01 -2.301553132179947170e+01 7.382692896394883064e+01
-6.168214000780638884e+01 -2.296491689356298593e+01 7.379020261612731701e+01
-6.198347454347785401e+01 -2.281839348941701928e+01 7.381358522711207115e+01
-6.240956105878225202e+01 -2.266711229195294663e+01 7.364592920042582591e+01
-6.253761346721703518e+01 -2.262460578496342123e+01 7.384265545672087683e+01
-6.297476383330977256e+01 -2.259002085868547738e+01 7.359240392012611665e+01
-6.314200610467671737e+01 -2.265480680642241396e+01 7.341464735759950599e+01
-6.339901228943795530e+01 -2.275028729592173704e+01 7.317262737989358357e+01
-6.346680665504803187e+01 -2.283891360527411507e+01 7.297565566914522606e+01
-6.353874146734871431e+01 -2.296669332752594528e+01 7.292369323028538020e+01
-6.358815428496266975e+01 -2.300724670778026848e+01 7.288340291561007689e+01
-6.376337994487000316e+01 -2.328715078246813164e+01 7.267497668001487909e+01
-6.371276199681652486e+01 -2.363080291834427271e+01 7.226023350482205387e+01
-6.370049968034328458e+01 -2.398682205390531408e+01 7.193944701781379081e+01
-6.360397244997535893e+01 -2.407647673981989556e+01 7.194132218954359814e+01
-6.341883063388107189e+01 -2.435341181073431471e+01 7.167650043918092706e+01
-6.332256245418145113e+01 -2.441356830090944641e+01 7.163961431396137414e+01
-6.275136454050812063e+01 -2.496086082198007716e+01 7.119444967362255738e+01
-6.253939844206675502e+01 -2.526895783063542922e+01 7.090010211317053290e+01
-6.251997834961722589e+01 -2.514056122042097741e+01 7.108906359409775177e+01
-6.246789066953754599e+01 -2.522540013493272681e+01 7.111748178423704303e+01
-6.250102173345933210e+01 -2.518679559883224783e+01 7.107233963178850900e+01
-6.224797488022807102e+01 -2.557055015202649884e+01 7.088977854552240387e+01
-6.192107956868444774e+01 -2.581437113072649936e+01 7.069902969046870567e+01
-6.195339214752778645e+01 -2.587428160766842211e+01 7.058440764575220783e+01
-6.198792769362743371e+01 -2.584902810275036700e+01 7.064914855391270976e+01
-6.198601517397257510e+01 -2.601096174211835432e+01 7.027476692314348838e+01
-6.207486137133309967e+01 -2.599896943901956092e+01 7.033156339680454039e+01
-6.209498762005034678e+01 -2.613589364528161241e+01 7.032887232018083523e+01
-6.222892544041238949e+01 -2.618988387597011069e+01 7.020369456157436616e+01
-6.244501088284150114e+01 -2.625698333999486067e+01 7.008245768182655411e+01
-6.301443138367304897e+01 -2.635713715367722898e+01 6.971957597730079215e+01
-6.318382167551465756e+01 -2.642640034832686524e+01 6.952296513459941707e+01
-6.326084486603101453e+01 -2.651704672242624383e+01 6.931719472797931303e+01
-6.331139117045071174e+01 -2.654274413498563945e+01 6.935490546346954943e+01
-6.323948511415802898e+01 -2.669683715943790503e+01 6.898830221985917888e+01
-6.315221401381942457e+01 -2.688174585803989203e+01 6.872232289275780204e+01
-6.316434920260788743e+01 -2.693463902755286199e+01 6.861705659867971008e+01
-6.289306526988311674e+01 -2.736957054433133862e+01 6.747868819247378269e+01
-6.292851725853881106e+01 -2.749939941778268349e+01 6.665194415996484167e+01
-6.294689755045305191e+01 -2.745799611072146718e+01 6.670510403527146082e+01
-6.290453331867112041e+01 -2.749394210552162576e+01 6.661430153096580398e+01
-6.287851668597191690e+01 -2.751857583869610835e+01 6.662633768399632572e+01
-6.242577533892306008e+01 -2.778501117459995839e+01 6.592362287800688136e+01
-6.241067616002923302e+01 -2.777255295884828001e+01 6.591971451239692215e+01
-6.215331565788456203e+01 -2.794795921121135507e+01 6.568724276950456442e+01
-6.214351645235882415e+01 -2.790485642658586585e+01 6.565822070957324286e+01
-6.208783490140692862e+01 -2.797014685708126080e+01 6.567787207308811048e+01
-6.175903889207503994e+01 -2.818908106013151382e+01 6.554798292939653948e+01
-6.145141568398323528e+01 -2.830031442290180621e+01 6.576777183392528059e+01
-6.112914644756096294e+01 -2.841152467409443716e+01 6.594199649150709774e+01
-6.081715275274593324e+01 -2.864172943462739340e+01 6.593559457563674187e+01
-6.083491574725807993e+01 -2.860654731375689153e+01 6.584936574341327287e+01
-6.066084871560141067e+01 -2.869449213933825149e+01 6.606611081309665678e+01
-6.000893374181536899e+01 -2.904348727281478659e+01 6.612561947690346642e+01
-5.985175954559405653e+01 -2.917115518865426793e+01 6.617488681709869525e+01
-5.919171854112180853e+01 -2.935927533009243007e+01 6.635154425663722577e+01
-5.891025371495427976e+01 -2.953230430265534778e+01 6.645375053234420193e+01
-5.826587250668512041e+01 -2.973591662348900400e+01 6.662388609647132398e+01
-5.808009183413031451e+01 -2.990668638129818646e+01 6.639787438788698637e+01
-5.784133869004907780e+01 -3.012419855094333343e+01 6.641364723613924070e+01
-5.776386973227234023e+01 -3.030954349126614034e+01 6.623118990252328331e+01
-5.769672991766804415e+01 -3.055042732208710277e+01 6.591631962758174268e+01
-5.716839456785179152e+01 -3.094588422808249106e+01 6.589692749192909105e+01
-5.692154081609773186e+01 -3.123306592453678832e+01 6.578767214360823345e+01
-5.694196635243103799e+01 -3.129934776541159636e+01 6.558110316530564887e+01
-5.700373351968315916e+01 -3.130850418889332332e+01 6.566609014758682861e+01
-5.772835205964544514e+01 -3.131716532745372206e+01 6.513796952109078120e+01
-5.811444817377734751e+01 -3.153492046391329495e+01 6.481004482942421419e+01
-5.787054082063252736e+01 -3.182424622017362026e+01 6.468924868666545080e+01
-5.743884201603304263e+01 -3.219138546290059821e+01 6.454741434663515065e+01
-5.727744314550700722e+01 -3.240140528727062019e+01 6.447260544699020102e+01
-5.717780900533570332e+01 -3.246017037398536331e+01 6.464643704521677137e+01
-5.705567220188755329e+01 -3.249173624643918856e+01 6.471355124147180504e+01
-5.690860253604054719e+01 -3.268454000985485663e+01 6.453447794581734343e+01
-5.650382977365860881e+01 -3.303984817095789595e+01 6.433653849679421910e+01
-5.627061366853477864e+01 -3.320455230328497009e+01 6.440993640506803786e+01
-5.604538998370044567e+01 -3.334751591396235426e+01 6.445438090574566559e+01
-5.600233498464666582e+01 -3.345466420556914500e+01 6.433254241175313837e+01
-5.572637127485391773e+01 -3.357186954228234299e+01 6.446832739394699274e+01
-5.549928862879761482e+01 -3.387163464592146056e+01 6.429596784488626326e+01
-5.546336385592565676e+01 -3.390344039441822588e+01 6.431770879942268948e+01
-5.514836776394815132e+01 -3.425906880356893680e+01 6.413838928196332745e+01
-5.506164130718916283e+01 -3.438771642030167186e+01 6.414521155905072192e+01
-5.431552125198528813e+01 -3.478986065358873248e+01 6.401802389037834473e+01
-5.379450722523228734e+01 -3.511446537768648568e+01 6.326279954786764392e+01
-5.379318672435976367e+01 -3.505107660017978333e+01 6.350403928260379871e+01
-5.376748892800463864e+01 -3.510397888799565180e+01 6.333304292869593155e+01
-5.380289300929503327e+01 -3.508302631006563388e+01 6.339204002678593497e+01
-5.383916431771960021e+01 -3.507867378974748362e+01 6.336018980970652592e+01
-5.384373129714867900e+01 -3.503083345435072715e+01 6.347373391800738318e+01
-5.388303148880698501e+01 -3.527101362699301035e+01 6.341159196314742985e+01
-5.417491038322063446e+01 -3.556854518935546139e+01 6.324874819380056579e+01
-5.477755430932896274e+01 -3.584104913381946744e+01 6.281503942429458220e+01
-5.469859353924345413e+01 -3.580228663924953025e+01 6.301474833901693273e+01
-5.463763501661048139e+01 -3.588357942402706158e+01 6.300343178360390084e+01
-5.472308414849939595e+01 -3.617548771029771615e+01 6.288210587439289156e+01
-5.475276412500736711e+01 -3.619446960511891120e+01 6.291534818051491129e+01
-5.501448001982105040e+01 -3.632435782515142364e+01 6.270089861189489966e+01
-5.524032239814729195e+01 -3.641829070272171975e+01 6.269227105186723747e+01
-5.551297612550045812e+01 -3.667259637928520988e+01 6.260037234307537801e+01
-5.569026404043119527e+01 -3.682824216972898057e+01 6.247209446460738036e+01
-5.611297370746981272e+01 -3.707645950111862021e+01 6.180780166424551680e+01
-5.588556582239568371e+01 -3.724703785953391844e+01 6.191337409963307437e+01
-5.578624237319419876e+01 -3.730416367277592826e+01 6.196924782143150878e+01
-5.566112940856181979e+01 -3.747907697354844458e+01 6.191748582730201633e+01
-5.485153247119324504e+01 -3.786283569428479723e+01 6.206457093019503191e+01
-5.352836673358613950e+01 -3.836164659584517267e+01 6.183776440242786521e+01
-5.367022846332918107e+01 -3.819875481485837554e+01 6.176149155653843081e+01
-5.358583215765684571e+01 -3.819018267672942102e+01 6.181973650938220999e+01
-5.293336267521280547e+01 -3.834708651567126481e+01 6.176300479780752539e+01
-5.285805168798209053e+01 -3.849551827715544050e+01 6.157432719343182725e+01
-5.235274534697005322e+01 -3.877419319274645204e+01 6.162904625975420458e+01
-5.203615018031406692e+01 -3.888906681374140817e+01 6.171355824102306542e+01
-5.141462302207796853e+01 -3.907857375634301889e+01 6.151065926055184718e+01
-5.082620193415970533e+01 -3.931594802885700801e+01 6.138286126876346316e+01
-5.084910091547119038e+01 -3.932958647405138208e+01 6.133785527607187760e+01
-5.053528116943029858e+01 -3.954875716805184993e+01 6.132569502736282629e+01
-4.985583560283976823e+01 -3.996080008021874619e+01 6.087503708657118295e+01
-4.982152811332333187e+01 -4.006956458407324817e+01 6.085419135520669442e+01
-4.964448294171838683e+01 -4.015957853844201964e+01 6.077847087632380862e+01
-4.942839935036590049e+01 -4.038032421391164917e+01 6.068132242329670589e+01
-4.941083282004663602e+01 -4.047317427425002734e+01 6.057774329071389730e+01
-4.902680880789871765e+01 -4.089350664891406950e+01 6.023569983049083021e+01
-4.883743584267391924e+01 -4.110763495332088269e+01 6.013240380907154758e+01
-4.892350722199547164e+01 -4.122004165777610751e+01 6.000857606901354302e+01
-4.909532142612453498e+01 -4.119785787157854884e+01 6.001796147703430506e+01
-4.925987635813087451e+01 -4.113717593636596348e+01 6.002574031331982951e+01
-4.946707262037224950e+01 -4.112228107689509216e+01 6.005318142616329169e+01
-4.960810818455498605e+01 -4.112714002823651072e+01 6.007748880776694023e+01
-4.965066107791655980e+01 -4.110337423850444338e+01 6.019200978315393513e+01
-5.036410486307107703e+01 -4.137253557245469437e+01 5.996485376991699923e+01
-5.083929462470322136e+01 -4.134912302554766939e+01 5.992773973779367225e+01
-5.106583653316479854e+01 -4.127872876684483572e+01 5.987166793702476753e+01
-5.188613216995977240e+01 -4.116389703664424360e+01 5.973452703586099233e+01
-5.208803752115380803e+01 -4.118255378080982609e+01 5.951354677118138170e+01
-5.212856524925413737e+01 -4.120334032624589327e+01 5.946110625454116416e+01
-5.219431377874548161e+01 -4.118577496297518792e+01 5.947939234613090775e+01
-5.257920059058351114e+01 -4.118349456039572942e+01 5.936514959173450734e+01
-5.271715629432971895e+01 -4.132051985046069831e+01 5.910220325442082867e+01
-5.274835863569492744e+01 -4.140243155149704535e+01 5.898444754224397002e+01
-5.316876253191644963e+01 -4.139714510908726197e+01 5.909174145886890983e+01
-5.331105093855035904e+01 -4.167482125889813460e+01 5.862062322140741344e+01
-5.324232046080127390e+01 -4.172506428183271510e+01 5.856278392995204740e+01
-5.318785356015800403e+01 -4.170313419092184404e+01 5.865845305083621497e+01
-5.291811937898522444e+01 -4.204560411154608346e+01 5.825943165948842761e+01
-5.277991323105348442e+01 -4.213979074437264671e+01 5.822979193113201291e+01
-5.244931897199435866e+01 -4.239929423457891744e+01 5.789269896786299796e+01
-5.215172822489922311e+01 -4.255394898359230638e+01 5.767224676617047407e+01
-5.189672059963303496e+01 -4.264041884920436587e+01 5.760078612630286443e+01
-5.176601734024910684e+01 -4.261863858673729055e+01 5.757344672452813938e+01
-5.127153353558566096e+01 -4.284816711260839384e+01 5.739350357836065086e+01
-5.104626979224117633e+01 -4.285081606581803726e+01 5.734786396014396814e+01
-5.036598263911507445e+01 -4.314076933658952839e+01 5.703966306740903747e+01
-5.033916498967233366e+01 -4.310489185442349935e+01 5.705065829910313369e+01
-4.962769426692146624e+01 -4.326722963464993654e+01 5.711249383008475888e+01
-4.916896643380538734e+01 -4.338918419418456551e+01 5.653721700609639811e+01
-4.917891726065585090e+01 -4.331741764330672595e+01 5.669596010109444251e+01
-4.911336073321373874e+01 -4.337936527244124818e+01 5.655630567009575316e+01
-4.905879819335115855e+01 -4.339196346429048390e+01 5.674443162582315381e+01
-4.773946330965840446e+01 -4.362846645107015320e+01 5.723783517948277222e+01
-4.731804421485372814e+01 -4.363089025251184694e+01 5.744274363620183976e+01
-4.725558404721774508e+01 -4.355149261921536663e+01 5.756709496747885169e+01
-4.698367143078057495e+01 -4.356710442828159557e+01 5.775171436087134680e+01
-4.668843288047555262e+01 -4.364436345550512897e+01 5.769014525661305015e+01
-4.630295935654062589e+01 -4.374462385803985853e+01 5.781447821562642275e+01
-4.596028818509049074e+01 -4.378392680724107322e+01 5.793243385428922920e+01
-4.577008879570544764e+01 -4.390362126583283953e+01 5.790591334552573244e+01
-4.543424903192966724e+01 -4.416042009329328266e+01 5.782922978121428059e+01
-4.498032958754406962e+01 -4.432056934489156674e+01 5.797002001155919970e+01
-4.485604902723119380e+01 -4.454066783462144485e+01 5.766863803240471498e+01
-4.491087221217080838e+01 -4.456757622644965977e+01 5.761217038475183472e+01
-4.495523960966934141e+01 -4.466897021578313343e+01 5.734543586458016762e+01
-4.520688919760633695e+01 -4.492004342923809190e+01 5.662546408101843554e+01
-4.535815588728731029e+01 -4.484137982006382117e+01 5.645300378489446302e+01
-4.582656766985189023e+01 -4.476131006218020048e+01 5.617033690586026751e+01
-4.603501669633251225e+01 -4.472198095899949521e+01 5.603843184700326674e+01
-4.672451517774046437e+01 -4.458617508977653188e+01 5.579653977863563341e+01
-4.708247089428234489e+01 -4.445612396357000762e+01 5.573197024710975711e+01
-4.725825916517958092e+01 -4.441032543841100733e+01 5.573379399548434776e+01
-4.769743247863966928e+01 -4.448869156252152379e+01 5.523869267099303215e+01
-4.801470296595379494e+01 -4.436960842679661710e+01 5.539049666814662487e+01
-4.856927609950857061e+01 -4.438132967435461751e+01 5.496948899622339013e+01
-4.867995883858975503e+01 -4.437572330538512233e+01 5.493255801068335131e+01
-4.918045547204962986e+01 -4.439954242400222029e+01 5.452851134132470179e+01
-4.934278533868587147e+01 -4.441627747101222212e+01 5.435608146875938473e+01
-4.958819417391306672e+01 -4.445798186842887390e+01 5.421341940660772707e+01
-4.984513230204218814e+01 -4.448201967237372401e+01 5.371347687181037145e+01
-4.988040368220789844e+01 -4.456146398504199624e+01 5.336701649904921396e+01
-4.994711882222303956e+01 -4.449984938342777241e+01 5.333563975627362197e+01
-4.990297719416822275e+01 -4.454407283491184444e+01 5.319936307359716920e+01
-4.990451068994504880e+01 -4.449982011543323779e+01 5.319570400409429567e+01
-4.988968363258873495e+01 -4.449251788507535821e+01 5.323794041176302017e+01
-4.982910981895844316e+01 -4.457543759326949839e+01 5.289770163266734926e+01
-4.962491742548896667e+01 -4.448774541404122829e+01 5.258898126498434067e+01
-4.949515475231136463e+01 -4.447799625049685801e+01 5.269881432808097088e+01
-4.948498260551395589e+01 -4.442659281458855958e+01 5.282178120263210985e+01
-4.944531678172566558e+01 -4.444146758487875104e+01 5.281401292514124179e+01
-4.918737008103571640e+01 -4.448395748781661041e+01 5.245569722855043437e+01
-4.882662312552629658e+01 -4.431548935225492869e+01 5.235245747458270671e+01
-4.864281149317866237e+01 -4.422862275907004914e+01 5.225339116148279572e+01
-4.833123995648479365e+01 -4.421635119660072633e+01 5.226970333881354236e+01
-4.810821114401270648e+01 -4.427335191113064639e+01 5.212903313966467067e+01
-4.784301559304016394e+01 -4.418484987078915083e+01 5.213091380227206173e+01
-4.759258282546623775e+01 -4.415281973650172631e+01 5.207936749152327138e+01
-4.723785237285588323e+01 -4.400769870904753134e+01 5.217576042123369007e+01
-4.712391471386665387e+01 -4.402346562551400666e+01 5.212521117807955306e+01
-4.656821779258653038e+01 -4.415183737580321122e+01 5.229656304158879720e+01
-4.646338692630463640e+01 -4.392006828581048694e+01 5.201990901670501444e+01
-4.644970609082476898e+01 -4.360251915143311408e+01 5.181061136220000662e+01
-4.639438847224838014e+01 -4.355943818443887494e+01 5.165266708837157239e+01
-4.609871528441824040e+01 -4.315503814754282530e+01 5.132441262801057746e+01
-4.630236846375301241e+01 -4.235772032003438881e+01 5.064065742994034736e+01
-4.624258483531860975e+01 -4.209074049176962262e+01 5.066811203906149785e+01
-4.606560563529610874e+01 -4.207943941837197599e+01 5.047983193998288698e+01
-4.561072455652245594e+01 -4.197476405935913135e+01 5.067055674245330010e+01
-4.542129106588146925e+01 -4.178300865250241714e+01 5.069419015876837875e+01
-4.533824208657725308e+01 -4.165536166787944694e+01 5.050843615493431571e+01
-4.521835740718916696e+01 -4.153434279190730649e+01 5.047425360755778456e+01
-4.527229711706925741e+01 -4.146241935681467794e+01 5.050695956819663479e+01
-4.525155549580281900e+01 -4.134158315409638362e+01 5.035551074632485324e+01
-4.515608897848852621e+01 -4.135800286533543613e+01 5.038154007330194872e+01
-4.514561575662396820e+01 -4.142230130536421484e+01 5.043913304689999677e+01
-4.495063168409008370e+01 -4.154880815345154588e+01 5.039709826199282361e+01
-4.464640024185692369e+01 -4.180534219363397597e+01 5.065974518803932369e+01
-4.452816915881834348e+01 -4.187455167139916057e+01 5.054890976750107257e+01
-4.464275958280168766e+01 -4.171523553801068829e+01 5.059186931553767863e+01
-4.464900895151621540e+01 -4.171589988445805375e+01 5.065335895552539114e+01
-4.486583489770428201e+01 -4.151094229748292719e+01 5.062833559882233203e+01
-4.521105632767550730e+01 -4.147065114857332446e+01 5.051313695514363644e+01
-4.545541398769108099e+01 -4.148449959020922506e+01 5.047111862201563781e+01
-4.570759546306108234e+01 -4.138606944636927665e+01 5.046183553702189784e+01
-4.623921258904653797e+01 -4.121893238499279732e+01 5.027030953939242863e+01
-4.670454659081401871e+01 -4.109184483767114671e+01 5.013382798653287864e+01
-4.757153231833200380e+01 -4.104154315267999209e+01 5.000419772911641303e+01
-4.770178130915231662e+01 -4.103511842958579336e+01 5.005737477538787061e+01
-4.793644919261588200e+01 -4.102720720854165393e+01 5.001309544980335886e+01
-4.827168707770672285e+01 -4.118280145257631375e+01 5.010377036900126768e+01
-4.858944545592892439e+01 -4.109065786391096253e+01 5.019062711897845475e+01
-4.907644370291736635e+01 -4.109456796835252135e+01 4.993421594426854426e+01
-4.926161004092835327e+01 -4.109351932326524093e+01 4.992243229054383846e+01
-4.962261823545232176e+01 -4.100621751414246319e+01 4.986414011733654661e+01
-5.014072447120071985e+01 -4.086189080072847446e+01 4.974887529072839243e+01
-5.040494805025188185e+01 -4.067184498332062503e+01 4.961538898067965420e+01
-5.053446895996332699e+01 -4.052148811768910264e+01 4.951331268116177853e+01
-5.051293674699493863e+01 -4.050731469532570372e+01 4.939936479721109208e+01
