3.628272094946475335e+01 -1.985529347915994833e+02 -1.855129457550670850e+03
3.842125719994174204e+01 -1.964049196281831087e+02 -1.854473590041473244e+03
3.979940826348062899e+01 -1.941762720312492831e+02 -1.852455257450327508e+03
3.915157607648871618e+01 -1.938250174522223972e+02 -1.848168778407569107e+03
3.379703263896608689e+01 -1.991934931553915078e+02 -1.850917667183176263e+03
2.963276338635792229e+01 -2.016227117354176812e+02 -1.850966416326705257e+03
3.452268032013165566e+01 -1.979060254380770516e+02 -1.848175391913016711e+03
3.677462044533501029e+01 -1.938473574013547136e+02 -1.843027938799725234e+03
3.374771078273076341e+01 -1.939651099919565240e+02 -1.838259913217992107e+03
2.939516244203259276e+01 -1.993111339590791999e+02 -1.842507462739823268e+03
2.616848407322524395e+01 -2.023351798347790123e+02 -1.848169564605963842e+03
2.007732714127053697e+01 -2.047056351953772548e+02 -1.850386500591695949e+03
1.733295534560257778e+01 -2.044874726054036671e+02 -1.845553954166054609e+03
2.286209732084745383e+01 -2.006260740320100240e+02 -1.838766306996566755e+03
2.151486059142701635e+01 -1.964892907249320047e+02 -1.832095263511153462e+03
1.403599713724332076e+01 -1.969353785643881452e+02 -1.830016760023324878e+03
1.433790903666115923e+01 -2.007632417429588543e+02 -1.834624135578469577e+03
1.185449970888922167e+01 -2.040323679033943733e+02 -1.839484008427442404e+03
7.225312779717839362e+00 -2.044933324731746325e+02 -1.838919036824891464e+03
4.001667961087377989e+00 -2.039089221132917942e+02 -1.837232284374909113e+03
5.062629747851694617e+00 -2.013746943361880994e+02 -1.833321455758886486e+03
6.985162587727813843e+00 -1.974529721103646978e+02 -1.828866131899968423e+03
2.070041264236976986e+00 -1.962327874271435917e+02 -1.826985930865006139e+03
-5.797451746184947297e-01 -2.010977345627050852e+02 -1.832278955658447330e+03
-7.390900675008438725e+00 -2.009508234580614214e+02 -1.832880427470149016e+03
-1.342904851853556636e+01 -1.986318946203026314e+02 -1.831638628988586561e+03
-1.228175764415981064e+01 -2.019741940974910506e+02 -1.835628533605929078e+03
-1.408665949354863756e+01 -2.036935781956813116e+02 -1.840665422915844374e+03
-2.209664570508088843e+01 -1.997890215601650539e+02 -1.837325568360592797e+03
-2.563389399300348259e+01 -2.001171155309196195e+02 -1.841542737943857219e+03
-2.032586102304151154e+01 -2.027126508102095386e+02 -1.843846132705210493e+03
-1.714410995141555816e+01 -2.041143835117731840e+02 -1.846576449611418639e+03
-2.148874038819009513e+01 -2.033774485886183072e+02 -1.848560568479965241e+03
-3.111366944438333348e+01 -1.986002760721505069e+02 -1.847998096081621270e+03
-3.030165669936614847e+01 -1.999598504062669235e+02 -1.851784560338465326e+03
-2.959254647572647912e+01 -2.018203458778833692e+02 -1.857175687823055796e+03
-3.334144269023776985e+01 -1.983824125389334370e+02 -1.857167929825858664e+03
-3.557296074944736120e+01 -1.965659123189788602e+02 -1.860275847360195485e+03
-3.600754611414861017e+01 -1.978749770992106392e+02 -1.864867542834944970e+03
-3.619553498737401753e+01 -1.994163971161116535e+02 -1.867665820811836511e+03
-3.624144791101619489e+01 -1.999375052647167479e+02 -1.871512003298491209e+03
-3.650723944682539468e+01 -2.000611988794344711e+02 -1.876142074129689036e+03
-3.685764173607658734e+01 -2.005225781126903257e+02 -1.880148209001560872e+03
-3.667248607817361972e+01 -2.016097983215133809e+02 -1.884109555885269401e+03
-3.677950779428836370e+01 -2.025236530830388233e+02 -1.886633401835837958e+03
-3.473222845466398212e+01 -2.051247286482406480e+02 -1.890111342168725514e+03
-3.219460124243822463e+01 -2.080882326871837904e+02 -1.891781306607999340e+03
-2.975526636773834355e+01 -2.091313279359648334e+02 -1.893787508521805876e+03
-2.197887669003546307e+01 -2.103615735340955268e+02 -1.896451009119482706e+03
-1.907861982261024991e+01 -2.128991136197764433e+02 -1.896404874608295586e+03
-1.645895967244506153e+01 -2.162962533888835424e+02 -1.894905686981612462e+03
-1.334233029968181938e+01 -2.180584970920140790e+02 -1.892063100456193979e+03
-9.586548894535297904e+00 -2.181295880985447866e+02 -1.887041360479013974e+03
-7.279722962401692143e+00 -2.182486917436999363e+02 -1.880975916309170771e+03
-5.305427225194108587e+00 -2.168266189317216117e+02 -1.875832208326710997e+03
-4.351962701133032851e+00 -2.191229432728248128e+02 -1.875702297813984615e+03
-2.330380400747358749e+00 -2.151555144005670854e+02 -1.871400818246246672e+03
-9.486059985421775309e-01 -2.170973350429879076e+02 -1.871606513025541972e+03
1.213345430834579020e+00 -2.167996296321721275e+02 -1.869779317023263047e+03
6.586440373303922513e+00 -2.149479117381310402e+02 -1.872924735329276928e+03
4.454737015695243940e+00 -2.191154616077203059e+02 -1.873100970273737857e+03
8.111296233737206762e+00 -2.164330842708766340e+02 -1.876234705552554942e+03
9.083076717670998335e+00 -2.173694561315926137e+02 -1.878040441477090553e+03
1.056740479057224746e+01 -2.177737415189498904e+02 -1.882550114992430963e+03
1.175296607238779245e+01 -2.180409396553302201e+02 -1.887406414822364468e+03
1.397472677644811512e+01 -2.172720361178083408e+02 -1.891547934404904709e+03
1.609992199761821041e+01 -2.160387288015664637e+02 -1.893582237099354188e+03
1.832358600504822732e+01 -2.153903300103164327e+02 -1.895719124680017330e+03
2.053596874634622083e+01 -2.135644939840217660e+02 -1.898241409189417709e+03
2.319185111982596936e+01 -2.107683448476487342e+02 -1.897471286702751058e+03
2.695861142344144668e+01 -2.098526384632090753e+02 -1.897975750014291407e+03
2.970464553154564413e+01 -2.107122942595539712e+02 -1.894554154873612561e+03
3.183323161501176912e+01 -2.111152631387798237e+02 -1.891718880976254013e+03
3.439806041086601596e+01 -2.094868320824722332e+02 -1.890261244563103673e+03
3.707679512744799410e+01 -2.075638334147622288e+02 -1.890615407613593788e+03
3.915035188727399884e+01 -2.043505173463234428e+02 -1.888878832400533611e+03
3.989306745528003262e+01 -2.017647972156883895e+02 -1.884770789344101559e+03
4.017873627440877016e+01 -2.005463299312984873e+02 -1.881025338256082478e+03
4.054865827290355185e+01 -1.987875827784350236e+02 -1.875329235221387535e+03
3.987280528069823760e+01 -1.990063686461843133e+02 -1.867253884488292670e+03
3.720673628729734617e+01 -2.001625405869801568e+02 -1.862604096549049245e+03
3.441117106243664381e+01 -2.005969544677128624e+02 -1.857457333439624108e+03
3.288957340338207302e+01 -2.001940351779354330e+02 -1.852539282445788331e+03
2.354783275253483055e+01 -2.049477891854295990e+02 -1.854795343243845082e+03
1.763037450701021669e+01 -2.061312675589541357e+02 -1.853131029878111121e+03
1.377001651177400987e+01 -2.072015475215279423e+02 -1.856101608882107030e+03
1.078633526169976875e+01 -2.078407910630982087e+02 -1.855453588209087229e+03
7.008262848169955817e+00 -2.095280448578230619e+02 -1.862825594534481979e+03
5.595155477691776014e+00 -2.094387208329896168e+02 -1.859483193530579456e+03
4.650782705249341120e+00 -2.096427469385185987e+02 -1.858969444891593412e+03
2.199932083101913349e+00 -2.104665143167808310e+02 -1.862691325122892977e+03
1.670798284417458035e+00 -2.108294878829527761e+02 -1.864666535593224580e+03
-6.148719422731119266e-02 -2.105720936378598935e+02 -1.864359069683421467e+03
-4.451040465602218887e+00 -2.097814203134074091e+02 -1.862403129533830906e+03
-7.675294898782226483e+00 -2.086825784782404298e+02 -1.863015314002024752e+03
-1.151986223394352749e+01 -2.076496915198556508e+02 -1.856474894721028249e+03
-1.346728149336227887e+01 -2.067551681923995943e+02 -1.852558122744741013e+03
-1.414739188161630068e+01 -2.061199798499050644e+02 -1.849367803643478737e+03
-1.931894427337057607e+01 -2.057777359199841669e+02 -1.855051233426799172e+03
-2.603781364407066690e+01 -2.038170508842492268e+02 -1.856392934632805463e+03
