3.585116721087341318e+01 -2.001676958713116505e+02 -1.859343213001852064e+03
3.632948153282308823e+01 -1.991638860055256544e+02 -1.858141146094666510e+03
3.791450259126054334e+01 -1.972522981459411540e+02 -1.856899595471485100e+03
3.980860368316380971e+01 -1.941252960128746849e+02 -1.853991752734854799e+03
3.909528131397102868e+01 -1.943273433909509151e+02 -1.850729658308946682e+03
3.832940376812356931e+01 -1.922948283420199402e+02 -1.844394162152895660e+03
3.692675726999824803e+01 -1.911763504967901213e+02 -1.840511957925616798e+03
3.550801824340825164e+01 -1.888719096052795692e+02 -1.836725473003582010e+03
3.518194889430383654e+01 -1.881982301207781347e+02 -1.835852453708205530e+03
2.816247460212163389e+01 -1.900453926604432127e+02 -1.830998016687217387e+03
2.476757701208958906e+01 -1.942387172647681837e+02 -1.831816144434574198e+03
2.046762775053186090e+01 -1.959992304696792189e+02 -1.831502363172645119e+03
1.518797701394422006e+01 -1.973393302955602167e+02 -1.830912468279984523e+03
1.061089267864243624e+01 -2.013780743255919674e+02 -1.834465732703271442e+03
2.091337479976221658e+01 -2.008631487759726042e+02 -1.837869984274029548e+03
2.772670315039750477e+01 -2.001283656947870497e+02 -1.842565250227027491e+03
2.075108367042894741e+01 -2.034693478125960837e+02 -1.845704692640411849e+03
1.505289221334852101e+01 -2.060307977223142473e+02 -1.849469616019125397e+03
1.946271001583552618e+01 -2.050331667646236440e+02 -1.850590542745527955e+03
2.230339385928780160e+01 -2.046056490622211186e+02 -1.852330298447432597e+03
1.468193494081063477e+01 -2.068909878896662917e+02 -1.855108696499367852e+03
1.121463016808412760e+01 -2.078349624858659581e+02 -1.859597607509816726e+03
9.094509947089889579e+00 -2.087515668785243861e+02 -1.863519700520757851e+03
8.582635458223009550e+00 -2.089599481535995267e+02 -1.864614592062187057e+03
6.081993840499642090e+00 -2.102037764411539627e+02 -1.865406514184604930e+03
4.446760190564248205e+00 -2.103991462532890466e+02 -1.864987099882245275e+03
4.900835438397102450e+00 -2.105281086371902006e+02 -1.865135370649395782e+03
1.352404916686040792e+00 -2.107406191568863676e+02 -1.865064539706688947e+03
-2.817158721715927072e+00 -2.105040806443591066e+02 -1.865007949524069318e+03
-4.054232959002803227e+00 -2.119990055787048959e+02 -1.871279951262653185e+03
-4.025106094420323188e-01 -2.128070432752361398e+02 -1.868271878917552158e+03
2.023699579426647688e+00 -2.128260406844386523e+02 -1.867882781255670579e+03
4.666471780563263394e+00 -2.128468402110709690e+02 -1.869444185863823577e+03
5.754807732425440747e+00 -2.142108321209401538e+02 -1.872566837880486446e+03
6.747265792801123041e+00 -2.173237784480614323e+02 -1.875754053830027942e+03
3.860509183207440742e+00 -2.168002625365822382e+02 -1.872495903782956930e+03
1.951932616611117055e+00 -2.151020754914465840e+02 -1.869859249188997865e+03
-1.769327361567945900e+00 -2.180282630171770677e+02 -1.873961890213131710e+03
-2.329352191744476386e+00 -2.150267148363834337e+02 -1.872624912191487738e+03
-1.621415678612308398e+00 -2.190486908338542662e+02 -1.874343730321263592e+03
2.286464829809659705e+00 -2.198287167613746078e+02 -1.873040530209193093e+03
4.670664558924173093e+00 -2.192613813983739988e+02 -1.874009251237245735e+03
7.099296410151687553e+00 -2.147016513564163915e+02 -1.874998767476628473e+03
7.890553707500700398e+00 -2.164853841816043314e+02 -1.876859201566901902e+03
7.636234067691454186e+00 -2.179651437114877979e+02 -1.877169073403918219e+03
7.520693445683100720e+00 -2.188368960584147658e+02 -1.877716329277025807e+03
8.615467073522864894e+00 -2.197671268754706091e+02 -1.879718741329128534e+03
8.912410317172813734e+00 -2.190360786442457481e+02 -1.879480317512249485e+03
1.015658986512045914e+01 -2.179686173900400092e+02 -1.882912807806027331e+03
1.262071625980948397e+01 -2.169658657770233674e+02 -1.887575020926829666e+03
1.425086084336827952e+01 -2.168643555552464477e+02 -1.891608121317303812e+03
1.613956761006215146e+01 -2.165376924959205667e+02 -1.893719684107259354e+03
1.737397689171658755e+01 -2.159727885822357791e+02 -1.894626870482859886e+03
2.028946148581542275e+01 -2.149857533208592599e+02 -1.897158713075999913e+03
2.242268273410270041e+01 -2.123660455432325875e+02 -1.898395543523674178e+03
1.689070531327718783e+01 -2.179621822680077798e+02 -1.895318436651470847e+03
1.804243299965790470e+01 -2.212070877981550723e+02 -1.899686620042514051e+03
1.293703656747816666e+01 -2.224428373634185903e+02 -1.896301640740544144e+03
1.013333620277631297e+01 -2.242264577722397689e+02 -1.896376890908835094e+03
7.137895792593532462e+00 -2.250220412095892470e+02 -1.895414963180632412e+03
1.808547684842736203e+00 -2.265895446490440008e+02 -1.897260441391657196e+03
-1.434415897022120134e+00 -2.265435558570402463e+02 -1.896173132318635680e+03
-5.288197515013905559e+00 -2.228733486324438218e+02 -1.893979130599351492e+03
-9.172617814534035574e+00 -2.214966855086688611e+02 -1.894423546662234457e+03
-1.110204294475724396e+01 -2.187417574272611205e+02 -1.892165302276139755e+03
-9.110791212064256683e+00 -2.170542325005189355e+02 -1.886975308941387311e+03
-7.179457269839303990e+00 -2.161911462854731383e+02 -1.882451477902951410e+03
-4.909179231544001709e+00 -2.162655459886302651e+02 -1.876526989205398877e+03
-3.650722353517252827e+00 -2.186043253544285392e+02 -1.875957757167100908e+03
-6.213159627276851893e+00 -2.177077957645760193e+02 -1.879858537304082574e+03
-8.177626233370716591e+00 -2.180601654832256600e+02 -1.885476955426624727e+03
-1.126044000211648211e+01 -2.174206013723697879e+02 -1.890742975941960822e+03
-1.246271695817573288e+01 -2.177894611563321519e+02 -1.892500144757115322e+03
-1.280073919775242075e+01 -2.197319186973132616e+02 -1.893812276791611794e+03
-1.665619649583351247e+01 -2.145423384444256953e+02 -1.895267329215442487e+03
-2.064947605641289385e+01 -2.106578307169115760e+02 -1.896807370127477043e+03
-2.543332252473634014e+01 -2.092752202674100488e+02 -1.896104008058592171e+03
-2.942432391157362304e+01 -2.090628905505989792e+02 -1.894771120856989000e+03
-3.312775115919858138e+01 -2.066236306721133360e+02 -1.893964644496166102e+03
-3.472497234439529734e+01 -2.050125016667986131e+02 -1.893465852112141420e+03
-3.703342059175332679e+01 -2.014086013033362406e+02 -1.894094493609616848e+03
-3.742105666647587725e+01 -2.004618247629479697e+02 -1.893428151898221586e+03
-3.737565908704040396e+01 -2.001214005856120366e+02 -1.883354496820634949e+03
-3.674093151921850620e+01 -1.998784029706306740e+02 -1.876713415240041741e+03
-3.589981483389435368e+01 -2.008500429933851024e+02 -1.870103235030083852e+03
-3.332563997681570811e+01 -1.987248985566846216e+02 -1.857748882752510553e+03
-3.230384069867881180e+01 -1.986084404078883381e+02 -1.852272127192873768e+03
-3.188984978110129020e+01 -1.974921654470448118e+02 -1.845924281863334500e+03
-2.751423543822481577e+01 -1.978647740671888471e+02 -1.838134119043975033e+03
-2.101801652066372128e+01 -2.035459468389066160e+02 -1.846545085912492596e+03
-2.399095095282254420e+01 -2.038764611002488891e+02 -1.853415864750177207e+03
-2.458951216157021236e+01 -2.028271929637034816e+02 -1.849828691636621897e+03
-1.298486247748506628e+01 -2.065125922287683409e+02 -1.850151205705977645e+03
-1.534663499317615276e+01 -2.044077874667433150e+02 -1.843426614908409192e+03
-1.684351156322864540e+01 -2.015313159737791011e+02 -1.836392154593744635e+03
-4.683884464981389328e+00 -2.015788498168738840e+02 -1.832743144658101983e+03
5.250573457175903513e+00 -2.039882188745936560e+02 -1.836838560194607908e+03
4.160209700594748483e+00 -2.023843227836015330e+02 -1.834123356808010840e+03
1.431158563525493577e+01 -2.044252405406321600e+02 -1.841287935216258575e+03
1.161675653045079315e+01 -2.030629451538780188e+02 -1.836922491060449602e+03
