-1.067488877866699681e+01 -2.197107975003589218e+02 -1.891430848090214340e+03
-1.064518901909427484e+01 -2.195287989944617948e+02 -1.891089717983018090e+03
-1.055945204845308183e+01 -2.195492562437514721e+02 -1.891124637747140696e+03
-1.075186693168896568e+01 -2.193828220301058423e+02 -1.890982201044266048e+03
-1.074243219511242842e+01 -2.189329455202279178e+02 -1.890392409446402326e+03
-1.078023400011971944e+01 -2.188344560494243183e+02 -1.890212684814864133e+03
-1.086107910735569249e+01 -2.182863398806265991e+02 -1.889770775434694087e+03
-1.093465235254720369e+01 -2.180843388002205359e+02 -1.889499869292983703e+03
-1.101408694381873943e+01 -2.175578345020851714e+02 -1.889050297720594017e+03
-1.078463629190602546e+01 -2.175120111438127992e+02 -1.888805326948729544e+03
-1.078780198026039727e+01 -2.173849616660839956e+02 -1.888507985732077032e+03
-1.062207933841735041e+01 -2.174315586687204700e+02 -1.888298201103854581e+03
-1.033693581597712807e+01 -2.175389788223874632e+02 -1.888035846102197638e+03
-1.027909470961323279e+01 -2.172349421774219991e+02 -1.887452650949420558e+03
-1.016872145068218458e+01 -2.171564731134282624e+02 -1.887082506136706570e+03
-9.980353331641737213e+00 -2.172469253195230863e+02 -1.887020723631877445e+03
-1.007540745561121298e+01 -2.172867400652559695e+02 -1.887043113579112969e+03
-9.691067391304159173e+00 -2.180492911176920074e+02 -1.887316713738663111e+03
-9.470626037086489646e+00 -2.185522940299274239e+02 -1.887267563033273973e+03
-9.349833004552820626e+00 -2.184798475620315230e+02 -1.886896143525385696e+03
-9.185966285829536560e+00 -2.182769930104675211e+02 -1.886373391394008877e+03
-9.113611554972720796e+00 -2.182354576478554691e+02 -1.886111105481163804e+03
-9.273403252761852400e+00 -2.181326615459855134e+02 -1.886024518550254697e+03
-9.321446343096496889e+00 -2.180223462583924459e+02 -1.885947443799566599e+03
-9.147675363102081292e+00 -2.180094774419010548e+02 -1.885701459932026410e+03
-8.932297556265950789e+00 -2.178380543393063249e+02 -1.885197980613472510e+03
-8.985232591451293160e+00 -2.176818184271007794e+02 -1.884953659763725682e+03
-9.008358264739257493e+00 -2.175302237962824279e+02 -1.884730895567835205e+03
-8.896924827477008080e+00 -2.175622954247332927e+02 -1.884609515554387372e+03
-8.996416499697815539e+00 -2.173351429044275847e+02 -1.884393104461456687e+03
-8.829839648210295877e+00 -2.172932011164689925e+02 -1.884016771499010474e+03
-8.849054480494530139e+00 -2.172694489942175267e+02 -1.883973858902301345e+03
-8.667832722528132194e+00 -2.171737057562802988e+02 -1.883509271451408722e+03
-8.676956991561453947e+00 -2.171474499151589157e+02 -1.883356478750080214e+03
-8.476290065198909929e+00 -2.166766307330370012e+02 -1.882668980454361417e+03
-7.693078058171693101e+00 -2.165122293402233709e+02 -1.882115140419161889e+03
-7.919022530245484859e+00 -2.164322724541189302e+02 -1.882184223574530506e+03
-7.755238776934049838e+00 -2.164685526504909490e+02 -1.882116714972516547e+03
-7.816093050544196785e+00 -2.164784832394757927e+02 -1.882153745471605362e+03
-7.790913600318916110e+00 -2.165159030748789917e+02 -1.882171486378591908e+03
-7.895675393085284099e+00 -2.164755691410665008e+02 -1.882222476182292212e+03
-7.875566615572807905e+00 -2.166215337084819339e+02 -1.882019048983828498e+03
-7.810281168981248356e+00 -2.170369944686493398e+02 -1.881866187673989998e+03
-7.532939427244329522e+00 -2.177775907598172580e+02 -1.881854351713161122e+03
-7.708041217718317739e+00 -2.176478807117226779e+02 -1.881865998653251609e+03
-7.697488047832948155e+00 -2.176292663812383239e+02 -1.881766025356462478e+03
-7.635136855504541131e+00 -2.178501760122867950e+02 -1.881532480410670132e+03
-7.675442820096435526e+00 -2.178768936124563425e+02 -1.881529676250845114e+03
-7.531182098015861470e+00 -2.182089443525916295e+02 -1.881512766879980518e+03
-7.576034998259402187e+00 -2.184493041859438733e+02 -1.881523628186502037e+03
-7.570422823047564975e+00 -2.188145670620098144e+02 -1.881405271354392426e+03
-7.498670558376204553e+00 -2.190632075786042776e+02 -1.881333568237376539e+03
-6.961311174509219768e+00 -2.196850494167994441e+02 -1.881255223794926223e+03
-7.047440117642850055e+00 -2.195292708770488161e+02 -1.881009720814547109e+03
-7.092150312242537780e+00 -2.194520358298604492e+02 -1.880918692660264469e+03
-7.043815575800550732e+00 -2.194233808311091423e+02 -1.880704753731964274e+03
-7.096478231279959914e+00 -2.188284502874866746e+02 -1.880020914366898523e+03
-6.709557512541110214e+00 -2.179068273841027406e+02 -1.878995280578892562e+03
-6.637820572480023884e+00 -2.179833849811789150e+02 -1.879198919414725424e+03
-6.678350946788057740e+00 -2.178922209732853901e+02 -1.879173718126697850e+03
-6.528841781687205525e+00 -2.173895041376334802e+02 -1.878751253311598703e+03
-6.352305067287687734e+00 -2.174244103900792027e+02 -1.878575414427909436e+03
-6.354499837791379946e+00 -2.170771278546550036e+02 -1.878111325636149104e+03
-6.396490299769467924e+00 -2.168242627832722746e+02 -1.877877089046125548e+03
-6.114636136198370764e+00 -2.163943784099444656e+02 -1.877430844111093393e+03
-5.918495137540659812e+00 -2.159967595844555319e+02 -1.876959308081795598e+03
-5.880625274616249953e+00 -2.160325082059049464e+02 -1.876954427563674699e+03
-5.843455141967609734e+00 -2.158456805992569230e+02 -1.876622192218782629e+03
-5.340920414525967885e+00 -2.155091902289935888e+02 -1.875937538074370877e+03
-5.329650332153391901e+00 -2.155274597980344424e+02 -1.875823606192344187e+03
-5.236918274707917931e+00 -2.154235643892855592e+02 -1.875663020996093792e+03
-5.134565198228415284e+00 -2.153427804464579367e+02 -1.875366615200043270e+03
-5.043463557807228881e+00 -2.153876474137135801e+02 -1.875269941523373973e+03
-4.700450272488438941e+00 -2.152927110002427185e+02 -1.874709159534299488e+03
-4.595939665728437262e+00 -2.152342918030478813e+02 -1.874429789082710613e+03
-4.506274300776837549e+00 -2.153834898921124648e+02 -1.874358536635031669e+03
-4.542897789002012132e+00 -2.155248531030873096e+02 -1.874452214218728841e+03
-4.571305502925412156e+00 -2.156445130252220679e+02 -1.874577496452214291e+03
-4.632827707754088920e+00 -2.158162503063372242e+02 -1.874680581306522299e+03
-4.682275871313180460e+00 -2.159379949021006269e+02 -1.874737490190678955e+03
-4.798098976675731819e+00 -2.159409113768714121e+02 -1.874782955757184936e+03
-4.741218423687584504e+00 -2.167330079791328501e+02 -1.874831917864950356e+03
-4.786349399612987554e+00 -2.171532452053082238e+02 -1.875053491277257763e+03
-4.762233635900628315e+00 -2.173380046989997538e+02 -1.875210663139308963e+03
-4.758597899547865495e+00 -2.180493279737759451e+02 -1.875656628233190304e+03
-4.581849833344023182e+00 -2.182846333908965448e+02 -1.875714400234094228e+03
-4.540869162864396458e+00 -2.183405567011916730e+02 -1.875710186801490181e+03
-4.567935178692536624e+00 -2.183877379857572123e+02 -1.875754988022865064e+03
-4.524806478273589505e+00 -2.187534022767241595e+02 -1.875915063025931204e+03
-4.312277035700347483e+00 -2.189892221678129260e+02 -1.875836521968982879e+03
-4.214519457436324501e+00 -2.190760366482658696e+02 -1.875769767025351257e+03
-4.393101216956722510e+00 -2.194232534810741129e+02 -1.875959050921014750e+03
-3.998131592385874455e+00 -2.197657687371755060e+02 -1.875744610431579531e+03
-3.936553243671738755e+00 -2.197378991129853034e+02 -1.875666989464190465e+03
-4.017005812465555437e+00 -2.196596354842616847e+02 -1.875668519639761826e+03
-3.627982786715207908e+00 -2.196470428982351564e+02 -1.875223814391320047e+03
-3.587631279806814177e+00 -2.195691589228605665e+02 -1.875078361935526118e+03
-3.236558255696650122e+00 -2.194552946854714719e+02 -1.874685871224013681e+03
-2.990387073700674136e+00 -2.193025178280851435e+02 -1.874408136641395686e+03
-2.887440462003766584e+00 -2.191270824394470935e+02 -1.874217776537364671e+03
-2.834521409227065192e+00 -2.190083072385536411e+02 -1.874180397529324864e+03
-2.603204190635096893e+00 -2.187023150211361724e+02 -1.873753269655757094e+03
-2.519034690934574883e+00 -2.185135851135711675e+02 -1.873652620447710888e+03
-2.138129035626519681e+00 -2.180954829024769879e+02 -1.873085211668210150e+03
-2.139074327329367975e+00 -2.180547189014577611e+02 -1.873106768055029761e+03
-2.095326421974945674e+00 -2.174757783227726406e+02 -1.872660358260960265e+03
-1.470281843232697838e+00 -2.172448427527436650e+02 -1.872325342439296492e+03
-1.616701403913040735e+00 -2.171896359534643750e+02 -1.872402558684691940e+03
-1.477616949337175356e+00 -2.171873291398138406e+02 -1.872311516275621671e+03
-1.652925813335357930e+00 -2.171026466674305198e+02 -1.872286559483215569e+03
-1.931763948661640029e+00 -2.159195742780980254e+02 -1.871536483299928250e+03
-2.056734795918600867e+00 -2.155016119816085620e+02 -1.871365377455599173e+03
-2.155706139465607407e+00 -2.153866356051066759e+02 -1.871416890719013281e+03
-2.289348137293600871e+00 -2.151111226912168490e+02 -1.871296487352477470e+03
-2.187597351868078022e+00 -2.148940835857178513e+02 -1.871097826038119820e+03
-2.254090450489513842e+00 -2.145654240969618627e+02 -1.870849507132366170e+03
-2.313500738124801615e+00 -2.142514130393202834e+02 -1.870674152464184317e+03
-2.270488135815909914e+00 -2.141370636403080709e+02 -1.870483679265247474e+03
-2.171782972756858499e+00 -2.139601593650810685e+02 -1.870104764338191899e+03
-2.250467054086641383e+00 -2.135914504588376133e+02 -1.869774045285911370e+03
-1.965403337901022951e+00 -2.136367787568666472e+02 -1.869506829786128037e+03
-1.923895256603245230e+00 -2.137087536824212464e+02 -1.869502966152147110e+03
-1.686064428904572310e+00 -2.138479254741543514e+02 -1.869416570428486011e+03
-1.064428311714010533e+00 -2.143314173081331262e+02 -1.869259953612566960e+03
-9.123888239200113048e-01 -2.144716463280000767e+02 -1.869386570928495985e+03
-7.092217078260603103e-01 -2.149169085739136733e+02 -1.869643837296250922e+03
-6.123384418103228199e-01 -2.151149013105037398e+02 -1.869761349970348192e+03
-4.804685465115881016e-01 -2.157247234442827448e+02 -1.870165194567421850e+03
-4.631509874045178776e-01 -2.160037379851389119e+02 -1.870431776267790383e+03
-4.898280306731237488e-01 -2.161407111652447668e+02 -1.870548090628228238e+03
-9.657124978927811298e-02 -2.166710379268209294e+02 -1.870638878294911137e+03
-2.843219959622445003e-01 -2.168708057263903868e+02 -1.870889334463637397e+03
2.550219005374287917e-02 -2.174601760484220279e+02 -1.871093265347005172e+03
4.256648677758789745e-02 -2.175642198788501958e+02 -1.871143561360004696e+03
3.438052020660364860e-01 -2.181067917566946619e+02 -1.871314409056272098e+03
4.805666357846121173e-01 -2.182955269088059254e+02 -1.871359558374741482e+03
5.700726563452462869e-01 -2.185615462828368436e+02 -1.871419052761639705e+03
1.008031233317538522e+00 -2.189092282683946564e+02 -1.871481077575864219e+03
1.328200819345639161e+00 -2.190489661056961381e+02 -1.871406545488969869e+03
1.355473767000674457e+00 -2.190900622401007354e+02 -1.871489001920433566e+03
1.489925011471740390e+00 -2.190988210487831793e+02 -1.871423262454658015e+03
1.499376906045242208e+00 -2.190830355826380469e+02 -1.871463704070942867e+03
1.461886852756634880e+00 -2.190576276069856476e+02 -1.871466155398842602e+03
1.792564454916316663e+00 -2.191123764497845912e+02 -1.871347993732692657e+03
2.141840956350549163e+00 -2.189635707408212681e+02 -1.871324424604649494e+03
2.059291397265980095e+00 -2.188203328106544348e+02 -1.871283618171998796e+03
1.948468782892533113e+00 -2.187634045751024132e+02 -1.871332034720521960e+03
1.961022844775456520e+00 -2.187359575140981462e+02 -1.871301309537436509e+03
2.350054307030518430e+00 -2.186031816982662406e+02 -1.871134704811280017e+03
2.538260376831090070e+00 -2.182375154987345809e+02 -1.871127994280856910e+03
2.679561497562062300e+00 -2.180610024098536428e+02 -1.871123117978677783e+03
2.720813425756190895e+00 -2.177760220147186487e+02 -1.871002378781805191e+03
2.889593166323408013e+00 -2.176322288326898331e+02 -1.870848703938208928e+03
2.947264179129035711e+00 -2.173606437224391073e+02 -1.870815834340338824e+03
3.046493241101885019e+00 -2.171368169052309156e+02 -1.870735493367681784e+03
3.035906765650565831e+00 -2.167420403491402396e+02 -1.870720500008639647e+03
3.103225970901320352e+00 -2.166584758543534690e+02 -1.870655149327008075e+03
3.017301952474070958e+00 -2.161798601597555773e+02 -1.870311370450893719e+03
3.337719248508747683e+00 -2.160537054210606414e+02 -1.870461908185008724e+03
3.588245272686933163e+00 -2.159588008868390432e+02 -1.870732204257451940e+03
3.757945706927642959e+00 -2.159269969821215227e+02 -1.870739462118055599e+03
4.186615082969211699e+00 -2.155728595478286991e+02 -1.870962043020800593e+03
4.927452742086721571e+00 -2.155805284527850176e+02 -1.871733931780359853e+03
4.948509665063006935e+00 -2.154131517557488564e+02 -1.871951067023411497e+03
5.164983536446158041e+00 -2.152929796960122530e+02 -1.871876257356411543e+03
5.074692033615122000e+00 -2.148050073521496870e+02 -1.871786925878029479e+03
5.112066695250767623e+00 -2.145539655422812189e+02 -1.871880706825814968e+03
5.325563973705172316e+00 -2.144693737307041772e+02 -1.871951123962180191e+03
5.397039078891893382e+00 -2.143214461393567092e+02 -1.872007649074257642e+03
5.365593935861078023e+00 -2.143329286849590289e+02 -1.872097267748678860e+03
5.533639149204617524e+00 -2.142988292033014659e+02 -1.872189822489289554e+03
5.522982173915529813e+00 -2.142150693131308117e+02 -1.872135677328984457e+03
5.459790653445011799e+00 -2.142191899621282687e+02 -1.872076088904213520e+03
5.517819431271760777e+00 -2.141067722914899889e+02 -1.871876628074551945e+03
5.280379206356485611e+00 -2.138831505420062342e+02 -1.871528827348952746e+03
5.399750493104463089e+00 -2.138307185969782722e+02 -1.871410276017051274e+03
5.359691579884660939e+00 -2.138583018462607868e+02 -1.871605192835783555e+03
5.298587134082175965e+00 -2.138505879865918757e+02 -1.871610409622488987e+03
5.312917764255047359e+00 -2.139653123192539965e+02 -1.871886598384595345e+03
5.369326154023532638e+00 -2.142805784753869602e+02 -1.872064073127187385e+03
5.364854898912327030e+00 -2.145122243273430058e+02 -1.872153449817729097e+03
5.342732497854925100e+00 -2.146980642196081135e+02 -1.872349266822142681e+03
5.457989731072117934e+00 -2.151440305629198235e+02 -1.872716776773734182e+03
5.525843270668303830e+00 -2.155353294381563956e+02 -1.873022710229830409e+03
5.504872537238725272e+00 -2.163125982916875500e+02 -1.873430646343138051e+03
5.430790891005102594e+00 -2.164138450584223961e+02 -1.873494637567878272e+03
5.433275243584603231e+00 -2.166285652334894962e+02 -1.873599429437950903e+03
5.263639843547458952e+00 -2.169691427945929263e+02 -1.873606263563755647e+03
5.135320458034108526e+00 -2.171945595350251210e+02 -1.873829257624917773e+03
5.297913219950082464e+00 -2.176846008098250422e+02 -1.874019920717223613e+03
5.276593833516670884e+00 -2.178510400040235311e+02 -1.874099104082147505e+03
5.281302249945255767e+00 -2.181487226404341584e+02 -1.874328689313905215e+03
5.321498204325131098e+00 -2.185751783368375527e+02 -1.874673754635599153e+03
5.430979248992528596e+00 -2.187618623818086121e+02 -1.874951086703025794e+03
5.528303320744825555e+00 -2.188382331078501579e+02 -1.875136822971104266e+03
5.645109566366535603e+00 -2.188384494028389327e+02 -1.875134610155276960e+03
5.911925840361796247e+00 -2.188143576847734835e+02 -1.875389660620289533e+03
6.007497891735454232e+00 -2.187416650000456855e+02 -1.875426248379571007e+03
6.007521741449011188e+00 -2.184222574910463095e+02 -1.875176641957425772e+03
5.685347412081640073e+00 -2.175108349586693635e+02 -1.874301184557941951e+03
5.525827501333395730e+00 -2.173885121176285224e+02 -1.873849360276242123e+03
5.387142805317381544e+00 -2.171092289102938935e+02 -1.873746587520081448e+03
5.260901682090768361e+00 -2.166804057709201743e+02 -1.873419734124237493e+03
5.517966519847831819e+00 -2.165167014159497967e+02 -1.873401447110129766e+03
5.423210840090504803e+00 -2.161942251605091769e+02 -1.873384484331687645e+03
5.893632276761785249e+00 -2.161640164786914795e+02 -1.873871279910389148e+03
6.209070140530656090e+00 -2.159757814227048698e+02 -1.874436571305537882e+03
6.672520603199288303e+00 -2.158633873583646050e+02 -1.874927777004219934e+03
6.907107501939719896e+00 -2.159322871900369307e+02 -1.875346481397738444e+03
6.993262308600669996e+00 -2.160511592581725608e+02 -1.875539324006842890e+03
7.171982426751299045e+00 -2.161820445514251503e+02 -1.875722624898381810e+03
7.128616808905142932e+00 -2.163361201516071048e+02 -1.875878303423862462e+03
7.283594135731213726e+00 -2.164619330199496403e+02 -1.875983494763348745e+03
7.308659387057055312e+00 -2.167581742849127977e+02 -1.876383624335057220e+03
7.479616499995863421e+00 -2.172197154629577369e+02 -1.876748565154374091e+03
7.650321025642845996e+00 -2.172473197609690772e+02 -1.876868397608925079e+03
7.546341480709052973e+00 -2.171661268321590228e+02 -1.876847033822908088e+03
7.675064737844905949e+00 -2.172253708754647050e+02 -1.876890345684593512e+03
7.665121951993981497e+00 -2.172331374304359315e+02 -1.876934865759132208e+03
7.696680653448183307e+00 -2.171586047756590858e+02 -1.876941055582119134e+03
7.678454310138320693e+00 -2.171863834323070819e+02 -1.876967102291259152e+03
7.722412171567526684e+00 -2.172110505600120405e+02 -1.877003201480289363e+03
7.534055406093131069e+00 -2.173904907490621099e+02 -1.876878260296779672e+03
7.438824065002883401e+00 -2.179096870580926861e+02 -1.876961913936589781e+03
7.351971228370089761e+00 -2.181152093534298615e+02 -1.877059356771558441e+03
7.414211743410817235e+00 -2.181428477075018577e+02 -1.877044229110167635e+03
7.352786009852579241e+00 -2.182292508011320251e+02 -1.877062662022314498e+03
7.329741318245638126e+00 -2.183244707424387911e+02 -1.877081596715018577e+03
7.163380295562987499e+00 -2.185669863200978682e+02 -1.877124437707366951e+03
7.243228466797035026e+00 -2.186778829510372191e+02 -1.877083740923448659e+03
7.045685248179587745e+00 -2.187186174219627333e+02 -1.877157220474784253e+03
7.248441641857617412e+00 -2.187395589477726787e+02 -1.877211553123097701e+03
7.232306657128042104e+00 -2.187131812518117613e+02 -1.877275405221169876e+03
7.298316617257214034e+00 -2.186064564031636053e+02 -1.877277367113075570e+03
7.499197971154508480e+00 -2.186647273819681629e+02 -1.877297693575900894e+03
7.508256843555095372e+00 -2.186023527353130191e+02 -1.877425916054711251e+03
7.650208550086645687e+00 -2.185916575915032638e+02 -1.877555704407614485e+03
7.665228344843221464e+00 -2.186107489656875202e+02 -1.877598742357996343e+03
7.900057484556192833e+00 -2.185747859515329026e+02 -1.877742518950912654e+03
8.008794909478687885e+00 -2.185922810006169072e+02 -1.877753791436838128e+03
8.008078490628221857e+00 -2.185743697253039102e+02 -1.877736446631133731e+03
7.992166781984920476e+00 -2.185273422812436479e+02 -1.877756329462726399e+03
7.946088503631550282e+00 -2.185828700638371629e+02 -1.877772051589447983e+03
7.997493413264635365e+00 -2.185236220357695629e+02 -1.877767372898870235e+03
7.891632884488927857e+00 -2.185320124273667375e+02 -1.877721449007705132e+03
7.947967504548927309e+00 -2.185151248246861542e+02 -1.877732254339388646e+03
7.973100214286496623e+00 -2.185298305334960673e+02 -1.877749209234790442e+03
8.053600922976009713e+00 -2.185299575160245524e+02 -1.877727712055953134e+03
7.932814575700227522e+00 -2.184947986383713214e+02 -1.877718254523518681e+03
7.894118378218401233e+00 -2.184711991016623642e+02 -1.877717392863911527e+03
7.968715300179894712e+00 -2.184677007267503086e+02 -1.877699215618155677e+03
8.111442033057507217e+00 -2.184641850664549168e+02 -1.877728800455761075e+03
9.067654538090096139e+00 -2.178959249544341787e+02 -1.879510623377601405e+03
9.002410820679756398e+00 -2.176316588955254474e+02 -1.879489348974776021e+03
9.214293760359787200e+00 -2.178783455268450666e+02 -1.880201756224439350e+03
9.218504003074087905e+00 -2.178759536439163185e+02 -1.880152370639425271e+03
9.237214005487807356e+00 -2.178659435978960630e+02 -1.880227275863629984e+03
9.305206873947277302e+00 -2.177779295315837089e+02 -1.880443190602829873e+03
9.419929140875645146e+00 -2.175125429729870064e+02 -1.880624854895381304e+03
9.556365607749881974e+00 -2.173675379972745247e+02 -1.881044847921715473e+03
9.900125216530113903e+00 -2.172940994318713592e+02 -1.881495590492681686e+03
1.007900777579076390e+01 -2.172551461333370639e+02 -1.882069343157589401e+03
1.035228770011700306e+01 -2.170340024331654547e+02 -1.882475650983207288e+03
1.031937583472269182e+01 -2.168144366248278345e+02 -1.882553162879809406e+03
1.033225154620408404e+01 -2.164463807827190749e+02 -1.882746295004591957e+03
1.024905984449781471e+01 -2.162496173559545127e+02 -1.882928211380053881e+03
1.037491660366955415e+01 -2.163113169734822918e+02 -1.883165981345327737e+03
1.070297891204139518e+01 -2.164178849132881055e+02 -1.883544530419735793e+03
1.078300299067315393e+01 -2.165255580422081039e+02 -1.883518414784104607e+03
1.081791288097851833e+01 -2.169006909485418078e+02 -1.883470132840304814e+03
1.039002987830561864e+01 -2.184005206579118408e+02 -1.884533582606409482e+03
1.065576174597522652e+01 -2.184479327055383351e+02 -1.884700618450977345e+03
1.074716127063760496e+01 -2.183375873195689678e+02 -1.885033183418622684e+03
1.083701867131915009e+01 -2.181869813432260230e+02 -1.885134136295654116e+03
1.123732461465190369e+01 -2.178103068641746063e+02 -1.885364152514535817e+03
1.149796708232334908e+01 -2.174278412805229550e+02 -1.885362710310035027e+03
1.161095302338162583e+01 -2.173124316706760339e+02 -1.885656732178304765e+03
1.177572404649693283e+01 -2.173617432621227863e+02 -1.885901981366317159e+03
1.198490894192226364e+01 -2.173796170506383021e+02 -1.886553206517554372e+03
1.216855515527200993e+01 -2.173242978171419395e+02 -1.886870226048255518e+03
1.230401013361938567e+01 -2.172561101585056065e+02 -1.887009802379624261e+03
1.228588020967796979e+01 -2.172488980529701621e+02 -1.887490427706696437e+03
1.233211872657836494e+01 -2.172828888383538413e+02 -1.887771809360928955e+03
1.245401481960248447e+01 -2.172808529935491038e+02 -1.887950217584805387e+03
1.234039453629343086e+01 -2.171941724642649945e+02 -1.887955231340539740e+03
1.243024812743737328e+01 -2.172187595163467790e+02 -1.888283245175605543e+03
1.260248526281532833e+01 -2.170436414979833444e+02 -1.888762475353317541e+03
1.282116994771950402e+01 -2.171159906446275158e+02 -1.888943725292828958e+03
1.288260266851892766e+01 -2.172024225713079773e+02 -1.889109633287479028e+03
1.280518757089109272e+01 -2.173960627630531235e+02 -1.889437182514504229e+03
1.279877080033909920e+01 -2.174048124643822462e+02 -1.889521506342519615e+03
1.278634861347215690e+01 -2.177406198220537590e+02 -1.889870848896633561e+03
1.232340455847797500e+01 -2.184650995053843303e+02 -1.890066520599388468e+03
1.226700982206817514e+01 -2.187511912003022303e+02 -1.890256955949620533e+03
1.218370794616157582e+01 -2.188276393908060982e+02 -1.890491189982123160e+03
1.221745655938601516e+01 -2.189280949701314967e+02 -1.890669552389211503e+03
1.226876892500958860e+01 -2.196000184822644883e+02 -1.891598225700440707e+03
1.181400486499600078e+01 -2.199475467559174717e+02 -1.891870786088112254e+03
1.190558004464222819e+01 -2.201443749469430884e+02 -1.892187925994050829e+03
1.186667363058172242e+01 -2.201278502579364158e+02 -1.892282776278711026e+03
1.222795000587645831e+01 -2.200334497119185073e+02 -1.892489057357864340e+03
1.236105531249757661e+01 -2.200211691399802021e+02 -1.892575109343473969e+03
1.250830562189907624e+01 -2.200074956321755622e+02 -1.892903625138657162e+03
1.273666868367493521e+01 -2.200269739112562775e+02 -1.893093744033000803e+03
1.287806705726939782e+01 -2.204115368104403103e+02 -1.893651046061927445e+03
1.251119876494477268e+01 -2.206549974451243088e+02 -1.893962122810198252e+03
1.246760851782241275e+01 -2.207317201005651270e+02 -1.894052356364781872e+03
1.240352425336705267e+01 -2.207660225616318428e+02 -1.894119992661598644e+03
1.164044497964707858e+01 -2.215439337807333970e+02 -1.894473984022932655e+03
1.142023579465099203e+01 -2.216198520868328217e+02 -1.894449429966728758e+03
1.118232462228346691e+01 -2.218705063332409395e+02 -1.894645031015173345e+03
1.105207988617618042e+01 -2.218864224020412337e+02 -1.894693293727936179e+03
1.123241818625589872e+01 -2.223274952835671456e+02 -1.895193641920248865e+03
1.106208938936058672e+01 -2.223540344625452008e+02 -1.895240629234897824e+03
1.128332425903153791e+01 -2.225233639104443739e+02 -1.895371303005841128e+03
1.098637965018493645e+01 -2.229638426315097206e+02 -1.895870431539314268e+03
1.110116343896435609e+01 -2.231544613441504907e+02 -1.896041220004111437e+03
1.121005324419770943e+01 -2.232943996432157974e+02 -1.896369749016016385e+03
1.161946162084512935e+01 -2.231240650526640081e+02 -1.896426957275770746e+03
1.216228735886737411e+01 -2.228960004567007331e+02 -1.896515983459368954e+03
1.234380275647776415e+01 -2.227360807447186346e+02 -1.896489271562758177e+03
1.248911828742314611e+01 -2.225649203038996120e+02 -1.896476090108866629e+03
1.267934126337732437e+01 -2.225363750560767073e+02 -1.896431727357204863e+03
1.306118423357648339e+01 -2.222897456024156213e+02 -1.896279365817294547e+03
1.310631117199727669e+01 -2.222876892744375539e+02 -1.896301964329626344e+03
1.308997050866787504e+01 -2.223050855076367043e+02 -1.896335799931465772e+03
1.299912477936906896e+01 -2.222073290861428347e+02 -1.896310380230753935e+03
1.294062316267247326e+01 -2.222351358673394657e+02 -1.896281933649924667e+03
1.311126339595835333e+01 -2.223142058132874013e+02 -1.896335703622498841e+03
1.313757104856539826e+01 -2.223033990892958798e+02 -1.896335361582440328e+03
1.310460933396455374e+01 -2.223564078199257779e+02 -1.896352032510156050e+03
1.309811321528571426e+01 -2.223428559042266954e+02 -1.896342266514442372e+03
1.306252522053362242e+01 -2.223425286107436420e+02 -1.896354932039101641e+03
1.312373060382651602e+01 -2.223721669437198898e+02 -1.896330843691571090e+03
1.300533230927811701e+01 -2.223369732003287709e+02 -1.896330759067882354e+03
1.404262532289472887e+01 -2.225585766144951094e+02 -1.896914698931517705e+03
1.438936179417277827e+01 -2.226286569553084007e+02 -1.897221476219178385e+03
1.440666994947122959e+01 -2.226582547993373851e+02 -1.897231108894502086e+03
1.448582269106984910e+01 -2.225909176232436266e+02 -1.897162223495516628e+03
1.443623346859159540e+01 -2.224809322546458361e+02 -1.897114937506653177e+03
1.452246120705972743e+01 -2.224126522737902292e+02 -1.897113548807019697e+03
1.486083255955163196e+01 -2.223406628177137350e+02 -1.897055509211699018e+03
1.476529721281450946e+01 -2.223177894695350005e+02 -1.897061220255017133e+03
1.490410839469135595e+01 -2.223811421649857607e+02 -1.897063786292451141e+03
1.487559699834339710e+01 -2.222607612479160366e+02 -1.897023054525352336e+03
1.501568169436263389e+01 -2.222910911764510615e+02 -1.897026662521856224e+03
1.495877254005089441e+01 -2.222764509568207245e+02 -1.897016506095206523e+03
1.496701232602525522e+01 -2.222740476350053882e+02 -1.897011410822974995e+03
1.594755059535525987e+01 -2.213448614254135975e+02 -1.896611684417125389e+03
1.676265019333784068e+01 -2.191697492893883918e+02 -1.896054272261031883e+03
1.690753273303838711e+01 -2.193857751576283590e+02 -1.896424733565891984e+03
1.701956806897289454e+01 -2.194400857861243992e+02 -1.896748107409449403e+03
1.710472641300399488e+01 -2.193034997437782181e+02 -1.896738595250904837e+03
1.705449153844576671e+01 -2.191348460376337073e+02 -1.896630944740475798e+03
1.733712223998769275e+01 -2.189377321886579466e+02 -1.896627884309693627e+03
1.723113231633933395e+01 -2.189310916525159598e+02 -1.896619569472024523e+03
1.734949474256065116e+01 -2.187676127691503609e+02 -1.896588195519828332e+03
1.726924560720144797e+01 -2.187709635361607923e+02 -1.896592444879070172e+03
1.731643943032411670e+01 -2.184106954622115779e+02 -1.896441207069930442e+03
1.748682531251321137e+01 -2.180099905232902415e+02 -1.896281371397640896e+03
1.749736567936141540e+01 -2.177196439268833501e+02 -1.896136360760207481e+03
1.758513570204556231e+01 -2.173095104212502520e+02 -1.895869521411203095e+03
1.751585530969802562e+01 -2.171162540869152053e+02 -1.895646841372954668e+03
1.728570484172817601e+01 -2.167360413166229591e+02 -1.895255743803215864e+03
1.722706249690439506e+01 -2.166551913052343252e+02 -1.895250870751496905e+03
1.729540348261589600e+01 -2.166436490053853561e+02 -1.895232178401100555e+03
1.720208977969949160e+01 -2.165811751091996769e+02 -1.895167909678737260e+03
1.723182632148662208e+01 -2.153221633417224155e+02 -1.894185790120004185e+03
1.729848806398177175e+01 -2.152049223356012249e+02 -1.894120046024253497e+03
1.723788942581884243e+01 -2.152320310883861794e+02 -1.894113123140924472e+03
1.733277955758409661e+01 -2.152741856811734920e+02 -1.894117513206273998e+03
1.729528116081174005e+01 -2.152127613983566903e+02 -1.894149074541926211e+03
1.775007913889464106e+01 -2.158065027008779566e+02 -1.895056430602531918e+03
1.803344111844293707e+01 -2.163919942031459414e+02 -1.895767351249903413e+03
1.800056271381423301e+01 -2.162793357144056472e+02 -1.895737735210026813e+03
1.838278956573174838e+01 -2.163609914825729277e+02 -1.896544767888546858e+03
1.888711754981171254e+01 -2.164820943127563737e+02 -1.897261526875273375e+03
1.913593585473913095e+01 -2.163896658016233232e+02 -1.897442080022173513e+03
1.971329160478330067e+01 -2.158924034439137927e+02 -1.897951675409422933e+03
1.990063725979284470e+01 -2.157463952982112403e+02 -1.898354950095885442e+03
1.977290220614109728e+01 -2.157451285112167625e+02 -1.898395760962851682e+03
1.978705670405803829e+01 -2.157317870400306106e+02 -1.898395224880291153e+03
1.981079681240627366e+01 -2.157873703143797570e+02 -1.898436069998833318e+03
1.980016557801242527e+01 -2.157624246665521923e+02 -1.898390986912271046e+03
1.978123594462677204e+01 -2.157779213407988266e+02 -1.898400075768829765e+03
1.975883174824630828e+01 -2.157527845610188706e+02 -1.898374423979400035e+03
1.971300459829395635e+01 -2.158595446323272995e+02 -1.898394589049232536e+03
1.976470567820681623e+01 -2.158751825871422056e+02 -1.898411880739625076e+03
1.961808078212442297e+01 -2.157936583021059107e+02 -1.898393110558765557e+03
1.981185170853605371e+01 -2.160236441103212996e+02 -1.898733160752235790e+03
1.987327021517885584e+01 -2.161204937626078788e+02 -1.898969904801620032e+03
1.989645781960599180e+01 -2.160644080350920717e+02 -1.898985302185654518e+03
1.971891629731553053e+01 -2.160317923180186312e+02 -1.898933398948009881e+03
1.980468540905950192e+01 -2.160229651154486419e+02 -1.898918235611836508e+03
1.977211104009612797e+01 -2.159222889088702289e+02 -1.898646905818623054e+03
1.983458333225165404e+01 -2.156038087337643390e+02 -1.898463852452930951e+03
2.000788038333141117e+01 -2.153030488373323124e+02 -1.898493013719941018e+03
2.061806874332835093e+01 -2.146997183902783490e+02 -1.898982490883671971e+03
2.061687586586072030e+01 -2.146477126529552208e+02 -1.899167345665602852e+03
2.059655796215666612e+01 -2.144596848143492025e+02 -1.899211873600321496e+03
2.073824935107726475e+01 -2.141377733726688462e+02 -1.899335854235040642e+03
2.102409034796503562e+01 -2.139251010597762388e+02 -1.899534271636603989e+03
2.104694159188382230e+01 -2.138261711324572900e+02 -1.899650732759717812e+03
2.110759722003508898e+01 -2.138433810103824726e+02 -1.899737152272060030e+03
2.119574697637618499e+01 -2.137578312315537801e+02 -1.899714684577645357e+03
2.122594187807332844e+01 -2.137463634939572046e+02 -1.899776305276138601e+03
2.120111423337080936e+01 -2.137016799303879395e+02 -1.899732813566751474e+03
2.151574427777276810e+01 -2.132360198017580615e+02 -1.899552842390109845e+03
2.180795661904252825e+01 -2.129786367993399381e+02 -1.899309053981173292e+03
2.195640404451509653e+01 -2.126807291443517158e+02 -1.899254266651236776e+03
2.216282780778648487e+01 -2.124845649344429717e+02 -1.899291207348149328e+03
2.241253998742483589e+01 -2.121971693358541700e+02 -1.899299952410103060e+03
2.276672071606218850e+01 -2.119094141080775842e+02 -1.899250811209944004e+03
2.290257921482358228e+01 -2.117780713174720120e+02 -1.899271418400790026e+03
2.293348648574494320e+01 -2.117102532788675262e+02 -1.899272724735672227e+03
2.341782627774790626e+01 -2.113958059969143051e+02 -1.899222739812985992e+03
2.381623732641187985e+01 -2.110131469882723252e+02 -1.899200419341907946e+03
2.368925117759948762e+01 -2.110339584934448567e+02 -1.899213832952752909e+03
2.378286498167413043e+01 -2.109850307652897925e+02 -1.899242966242418106e+03
2.383449188066435909e+01 -2.109194888526903355e+02 -1.899469323684094434e+03
2.388324352609322432e+01 -2.108891264944478507e+02 -1.899478848109199362e+03
2.395514377653611149e+01 -2.108680793042441053e+02 -1.899493595666875308e+03
2.373568750336462330e+01 -2.108699365667937400e+02 -1.899473602507280248e+03
2.375883868459589365e+01 -2.108251621191707841e+02 -1.899433714172989085e+03
2.382519314495858254e+01 -2.108243493456560032e+02 -1.899487112805322568e+03
2.372381186952262766e+01 -2.108202537488867563e+02 -1.899420915133568087e+03
2.376985211245291651e+01 -2.107938851080705547e+02 -1.899383889229841998e+03
2.405715572495054744e+01 -2.106772575490278712e+02 -1.899328678273913965e+03
2.429546171078712291e+01 -2.106088995830584167e+02 -1.899291055785998424e+03
2.418278930226899348e+01 -2.105642199854185037e+02 -1.899046627614193085e+03
2.416734402229866419e+01 -2.105082596352902158e+02 -1.898524590755119334e+03
2.428017475365468414e+01 -2.104979067734512626e+02 -1.898379611712813585e+03
2.411870203507568533e+01 -2.105038454477166567e+02 -1.898320706398986886e+03
2.415397130851435037e+01 -2.105811487084086195e+02 -1.898356265209725962e+03
2.396187100344007348e+01 -2.105906161700281984e+02 -1.898530390911027780e+03
2.382052520792662165e+01 -2.106468622483940862e+02 -1.898544302879191719e+03
2.388911297585524096e+01 -2.106291734531730810e+02 -1.898529364623766696e+03
2.377420445417280348e+01 -2.106159544532756911e+02 -1.898521219094840490e+03
2.363732461897582482e+01 -2.106360412429837652e+02 -1.898304843112829758e+03
2.352106798863465542e+01 -2.106773545929568456e+02 -1.897979633842597195e+03
2.322771423947970959e+01 -2.107812547601004951e+02 -1.897452541904589225e+03
2.301347293594670873e+01 -2.108743646922605421e+02 -1.897396061654801997e+03
2.304966130558544535e+01 -2.109225219680691907e+02 -1.897380595182995194e+03
2.297115507112297195e+01 -2.109273587260821046e+02 -1.897420254240419354e+03
2.313397958994229242e+01 -2.109370442648359472e+02 -1.897505261030310749e+03
2.324782492388896316e+01 -2.108771719585764117e+02 -1.897549170288829373e+03
2.357141028886707090e+01 -2.108491094617730823e+02 -1.897671623419646494e+03
2.366753263471664326e+01 -2.108315983660738198e+02 -1.897747450711022111e+03
2.388131498824355958e+01 -2.106818446338434114e+02 -1.897828532599319487e+03
2.451005611172753618e+01 -2.103915363411381918e+02 -1.897751324493777702e+03
2.456591179267087455e+01 -2.104483754652161167e+02 -1.897795660056917995e+03
2.443085872324247987e+01 -2.103679270387869451e+02 -1.897730409844472206e+03
2.452198297427236184e+01 -2.104021620769403285e+02 -1.897805422196161999e+03
2.472272257182420674e+01 -2.104025347681966878e+02 -1.897845670637783996e+03
2.484890684378981973e+01 -2.103704601906909488e+02 -1.897809663073069260e+03
2.492697461509376211e+01 -2.103889631790373471e+02 -1.897853809238954227e+03
2.498131050500430206e+01 -2.103409927776918948e+02 -1.897835157592292262e+03
2.513846497073584629e+01 -2.103870681048417453e+02 -1.897865368447683295e+03
2.516750664692136752e+01 -2.103536956428519602e+02 -1.897897834569493853e+03
2.515116933733288818e+01 -2.103500448908216924e+02 -1.897937575612338833e+03
2.516043702392661174e+01 -2.103230951846393566e+02 -1.897945598344541622e+03
2.520309350985914421e+01 -2.103345026789784242e+02 -1.897943882179482898e+03
2.524565218975751435e+01 -2.103377014865504009e+02 -1.897999779535499329e+03
2.540680595044422319e+01 -2.103400311782354777e+02 -1.898042497689477386e+03
2.573225119860265409e+01 -2.102665525715499371e+02 -1.898212486816955106e+03
2.581333363305927975e+01 -2.102169370068024534e+02 -1.898258229928703940e+03
2.581329803211556850e+01 -2.101738135169133557e+02 -1.898291786919277001e+03
2.593308929513622729e+01 -2.101521438532936941e+02 -1.898388122306524565e+03
2.593669807920540649e+01 -2.101618997524639951e+02 -1.898478259689599099e+03
2.621624036314669581e+01 -2.101302575191526785e+02 -1.898576381802941341e+03
2.650738572245175817e+01 -2.100478374083481015e+02 -1.898827210571855630e+03
2.740989736810283262e+01 -2.099389928352233596e+02 -1.898794010747156335e+03
2.745546766488618573e+01 -2.099175186384382528e+02 -1.898830909780846014e+03
2.762608126715075230e+01 -2.099244325726114369e+02 -1.898864990162097911e+03
2.760791168727981670e+01 -2.099142529896712404e+02 -1.898857822279330549e+03
2.915373987709057246e+01 -2.096591065705979418e+02 -1.898798891153632894e+03
2.958872910252415522e+01 -2.096770372225794006e+02 -1.898722103872197295e+03
2.954967118353734179e+01 -2.096691023728797063e+02 -1.898721079481525521e+03
2.952126171075984473e+01 -2.096488644292458332e+02 -1.898685681509190317e+03
2.945296184371004955e+01 -2.096366000783960999e+02 -1.898659832493486647e+03
2.975657861612942412e+01 -2.096729551203008270e+02 -1.898428574492630332e+03
2.964431559964369711e+01 -2.096378467761626325e+02 -1.898301110635394480e+03
2.977877230080981263e+01 -2.096544114877094103e+02 -1.898209195053061876e+03
2.999909765282095719e+01 -2.096548745296042853e+02 -1.898070569868945768e+03
2.987472109045494761e+01 -2.097236238411704505e+02 -1.897946982897072985e+03
2.984550731539658130e+01 -2.097247993119353850e+02 -1.897870127868035297e+03
3.012368011884034757e+01 -2.097396460012601835e+02 -1.897450673432780604e+03
3.050727278422563415e+01 -2.095457871871650752e+02 -1.896873802751561243e+03
3.048829972092789831e+01 -2.095268362332192567e+02 -1.896875004819179139e+03
3.049089065991725533e+01 -2.095636357704302100e+02 -1.896887506810400509e+03
3.056277997627514509e+01 -2.095685882859693550e+02 -1.896907400741765287e+03
3.051699974635509705e+01 -2.096014239519570594e+02 -1.896913696753269051e+03
3.074456540978011532e+01 -2.095652712279845105e+02 -1.896941029204915367e+03
3.121645030472536320e+01 -2.093078895500848091e+02 -1.897150537227015093e+03
3.124174790767371235e+01 -2.093175405805159244e+02 -1.897169178674952036e+03
3.123154364730569199e+01 -2.093222772685987820e+02 -1.897154591331737038e+03
3.127125338273059896e+01 -2.093485957620899285e+02 -1.897175757480233870e+03
3.118730302941242627e+01 -2.093320029489514695e+02 -1.897112147700335527e+03
3.126836712027038345e+01 -2.093615304098774175e+02 -1.897036664849615136e+03
3.129604043590467910e+01 -2.094716676110330980e+02 -1.896921747907836561e+03
3.139694977993622871e+01 -2.094196278192911223e+02 -1.896870762213219450e+03
3.193405147846151237e+01 -2.094660502063788385e+02 -1.896578332357507861e+03
3.211710437953873054e+01 -2.094186586255811733e+02 -1.896512196103588167e+03
3.228748441632549060e+01 -2.094115590278179013e+02 -1.896534010807066807e+03
3.224773089959874994e+01 -2.094202547345220751e+02 -1.896552188613179169e+03
3.264553465858604397e+01 -2.093467028259072436e+02 -1.896499583404778150e+03
3.376165955494969495e+01 -2.091580937266163858e+02 -1.896225875308928835e+03
3.369029656034712161e+01 -2.091514524106590329e+02 -1.896218060979997972e+03
3.371923249870288686e+01 -2.091509175891312395e+02 -1.896180916593296388e+03
3.377031746583776339e+01 -2.091630182795954624e+02 -1.896114006698109733e+03
3.410438746704310375e+01 -2.091783095633919061e+02 -1.895919157526740491e+03
3.499502399397169228e+01 -2.090363927066377130e+02 -1.895502144589561794e+03
3.504998878444219912e+01 -2.090383139763575286e+02 -1.895482580605580779e+03
3.502425231232471958e+01 -2.090120898497556539e+02 -1.895481302363989698e+03
3.500743817955821413e+01 -2.089949757072545822e+02 -1.895445888353923920e+03
3.507479164678741057e+01 -2.090234065826761025e+02 -1.895478953622530980e+03
3.517171919965979043e+01 -2.089874013391624317e+02 -1.895446890640062520e+03
3.551027200907657289e+01 -2.089200274222938845e+02 -1.895252545138132746e+03
3.760901097569538365e+01 -2.071327337951289564e+02 -1.893272873274402627e+03
3.837394819527987977e+01 -2.061702338685562381e+02 -1.892885928562634035e+03
3.847272973967166365e+01 -2.058318317226182899e+02 -1.892903805528554813e+03
3.859848543524645947e+01 -2.058727594829469183e+02 -1.893201237875709694e+03
3.838125076463134633e+01 -2.058632143441092524e+02 -1.893183029548068816e+03
3.844480425856792749e+01 -2.059067155794060682e+02 -1.893212827954614795e+03
3.841103576540336206e+01 -2.059311626462598781e+02 -1.893239412631364530e+03
3.834263789097127528e+01 -2.059520735515237106e+02 -1.893169701490368880e+03
3.826391570733230196e+01 -2.061746157167381455e+02 -1.892814181496940364e+03
3.813455044546077488e+01 -2.063069616997555045e+02 -1.892751974494722617e+03
3.775467015014338301e+01 -2.066811517228077832e+02 -1.892746304581655750e+03
3.785902918019269237e+01 -2.067866440919337379e+02 -1.892618387542140681e+03
3.776471776805714597e+01 -2.067931349058761157e+02 -1.892626463874872570e+03
3.784678051893752126e+01 -2.068606100694721022e+02 -1.892407320620471182e+03
3.777118219188773907e+01 -2.068825945615824367e+02 -1.892222516493962530e+03
3.780285205226213918e+01 -2.068730919311379637e+02 -1.892120405067937781e+03
3.795761846594092503e+01 -2.069043209275392314e+02 -1.891865383942743165e+03
3.809607763295720417e+01 -2.064349900130713991e+02 -1.890953645417632288e+03
3.826840936584908093e+01 -2.062407278133500768e+02 -1.890792036718359213e+03
3.830384502617032183e+01 -2.062593161931401937e+02 -1.890808149544145863e+03
3.834348386683247156e+01 -2.061646388761059541e+02 -1.890735783961727066e+03
3.855448614118028416e+01 -2.059550580165566203e+02 -1.890588185948496630e+03
3.907530960981281964e+01 -2.052267045144731981e+02 -1.889885544948689358e+03
3.904979115713864246e+01 -2.050804618589489792e+02 -1.889778520721227096e+03
3.915542684052283562e+01 -2.047672497667478240e+02 -1.889934316697499071e+03
3.932035997886242740e+01 -2.044583793807431960e+02 -1.889788055242877363e+03
3.953773227332213480e+01 -2.043449405619376193e+02 -1.889775093776657059e+03
3.957975889812441750e+01 -2.040286895977431243e+02 -1.889675907580019384e+03
3.969353067346315811e+01 -2.038842212956113542e+02 -1.889842222009285024e+03
3.974832750741027354e+01 -2.037241773693679079e+02 -1.889791563500272332e+03
3.971264673638719245e+01 -2.036580879345359563e+02 -1.889695826000023771e+03
3.985654713538252736e+01 -2.030258784143529454e+02 -1.888901204295829075e+03
4.005056624093914763e+01 -2.028508558464119744e+02 -1.888643384769765134e+03
4.002756018592162945e+01 -2.027894790173341448e+02 -1.888624005202634635e+03
4.012561250774081145e+01 -2.027239676676501858e+02 -1.888609105768360678e+03
4.003644689388433164e+01 -2.025345512132768704e+02 -1.888487585107910945e+03
4.010569023777489406e+01 -2.023888737590447136e+02 -1.888262483621453612e+03
4.014996484526226084e+01 -2.021917757201512700e+02 -1.887832584416838017e+03
4.007943285542179979e+01 -2.022129339578348208e+02 -1.887836237481446233e+03
4.008576719714301362e+01 -2.021399161281870533e+02 -1.887612944191589122e+03
4.011426384310475157e+01 -2.018926892629410474e+02 -1.887209387714327931e+03
4.037326803517741070e+01 -2.018160513143333787e+02 -1.886943159322397833e+03
4.032812253034609284e+01 -2.017318695801030515e+02 -1.886796057244697977e+03
4.048937847552470259e+01 -2.015290500715264557e+02 -1.886439955663924593e+03
4.054293878364559589e+01 -2.014615347988994642e+02 -1.886271891795141755e+03
4.040886938711544474e+01 -2.013695380158605133e+02 -1.885956320444515086e+03
4.051973608204076527e+01 -2.012235473987439036e+02 -1.885629545642645553e+03
4.043853794212809305e+01 -2.009383322470285123e+02 -1.885161514511567475e+03
4.053074903458822575e+01 -2.009690442917317341e+02 -1.885185919119280470e+03
4.072256482648694487e+01 -2.009639575793280528e+02 -1.885185602786290474e+03
4.064617258615901818e+01 -2.007872129173570670e+02 -1.885073276190647448e+03
4.073999945113281740e+01 -2.004851918831860473e+02 -1.884818234821202395e+03
4.076139630475992703e+01 -2.004401183546701759e+02 -1.884797721996857263e+03
4.077700850763867635e+01 -2.003705199011496063e+02 -1.884756068637364933e+03
4.080717116501043762e+01 -2.003621617804464563e+02 -1.884736207813056581e+03
4.091191895237571430e+01 -2.001946876821294836e+02 -1.884429295411233852e+03
4.107636451405409161e+01 -1.998527666466945902e+02 -1.883933193086380697e+03
4.110308423184474691e+01 -1.997801787527811541e+02 -1.883814044316658510e+03
4.094965105371932168e+01 -1.998281297379211026e+02 -1.883821650524964980e+03
4.105136899464163491e+01 -1.997436505996834057e+02 -1.883646535874028586e+03
4.114559819547410058e+01 -1.995159068308938686e+02 -1.883252355836087872e+03
4.125855297282998890e+01 -1.993197761587672119e+02 -1.882942722870060379e+03
4.132643710625561084e+01 -1.985662104543817463e+02 -1.881923324805547509e+03
4.111291243934266504e+01 -1.975608066870338746e+02 -1.880859746146211592e+03
4.118852136523665308e+01 -1.975770696671852420e+02 -1.880850865473099020e+03
4.134441926780962717e+01 -1.975789476875445700e+02 -1.880839459367896097e+03
4.128255957544824639e+01 -1.976082558292342810e+02 -1.880563501572221412e+03
4.114093558622778346e+01 -1.975965124249706832e+02 -1.880192449480618507e+03
4.099098862853531955e+01 -1.975404486674424618e+02 -1.879553668729350875e+03
4.080844763724014967e+01 -1.971268398154442423e+02 -1.878656391318601663e+03
4.102823168813159782e+01 -1.973245641211749444e+02 -1.878461318189901249e+03
4.093951409833666588e+01 -1.973659215926213903e+02 -1.878339241704803499e+03
4.082126714314365756e+01 -1.975998393477363493e+02 -1.878033596903628904e+03
4.077815928306532101e+01 -1.977228084421824690e+02 -1.877718089287815701e+03
4.076529046560526126e+01 -1.980086338436244944e+02 -1.877385419831858144e+03
4.072468602750988254e+01 -1.982543892903193239e+02 -1.877264489560961010e+03
4.070425466439152018e+01 -1.984285751712947956e+02 -1.877206138417918282e+03
4.063352161038971389e+01 -1.987355012330274349e+02 -1.877034173965419086e+03
4.055133864631989127e+01 -1.989063237456999218e+02 -1.876724818052668979e+03
4.070143826344067861e+01 -1.985836723015186749e+02 -1.875774528555136385e+03
4.084360139518076949e+01 -1.985617050440521041e+02 -1.875528669952901737e+03
4.086196771988841192e+01 -1.985998303207659887e+02 -1.875491775407183923e+03
4.083575601631959273e+01 -1.985936436074797768e+02 -1.875034739028324793e+03
4.073188907180808371e+01 -1.986804017912763527e+02 -1.874802500976467854e+03
4.064280855739444576e+01 -1.988372365543774549e+02 -1.874432293511583339e+03
4.076600576539149756e+01 -1.989393075618141893e+02 -1.874103648073880322e+03
4.076354145741343871e+01 -1.990754415759816425e+02 -1.873574692974903655e+03
4.070501047742247636e+01 -1.993191385446341144e+02 -1.873286899233954500e+03
4.042687769116251673e+01 -1.994724276922564172e+02 -1.873008796582126934e+03
4.042298255116119776e+01 -1.996171615676823308e+02 -1.872903065480946225e+03
4.049063091329500708e+01 -1.997428604447707414e+02 -1.872604842149999968e+03
4.036333877985033780e+01 -1.997555426172303896e+02 -1.872129872393732967e+03
4.029939366503770515e+01 -1.998682872847938086e+02 -1.871905934693180825e+03
4.027874407807564694e+01 -1.999416721097194340e+02 -1.871591394717882622e+03
4.038641726553495914e+01 -2.000045897331379763e+02 -1.871406736247965910e+03
4.022326474646561678e+01 -2.001650592538838396e+02 -1.871174112386283696e+03
4.020802118951630177e+01 -2.002206121269060191e+02 -1.870487296076326629e+03
4.008872281080337530e+01 -2.002966122172333030e+02 -1.870039449103775041e+03
3.991959511290095719e+01 -2.004151588945015021e+02 -1.869547213347904744e+03
3.972894361880069880e+01 -2.006515605693229531e+02 -1.869205556629846342e+03
3.939576772668822002e+01 -2.009949720253138992e+02 -1.868850803261290594e+03
3.869995157500054006e+01 -2.015767480497657118e+02 -1.868682743365605120e+03
3.786261434855317987e+01 -2.022281967961187092e+02 -1.868939808580704494e+03
