-1.281558859150925400e+01 -1.937422162393488634e+01 1.724399801437652968e+01
-1.642183937794681015e+01 -2.203598479837475566e+01 1.861789307120193371e+01
-1.616672460017400681e+01 -1.468910870670751478e+01 1.738476137612065031e+01
-2.165503094967118614e+01 -8.953292205909065160e+00 1.839772606178235037e+01
-2.187348281502102054e+01 -1.295526411435835712e+01 1.944124407717254144e+01
-2.213466050222336889e+01 -2.090218145295492036e+01 2.077287837443486751e+01
-2.706383585327762376e+01 -1.855532367044574471e+01 2.334926991132374496e+01
-2.914878027850028275e+01 -1.205101117517321541e+01 2.395576237425075306e+01
-3.109549112740256760e+01 -1.334518100906313975e+01 2.529713195959129735e+01
-3.282272896780125393e+01 -2.244416338729661220e+01 2.725225197943473177e+01
-3.632593666899606433e+01 -1.872236502916098289e+01 2.945358665485309757e+01
-3.694621726485996760e+01 -1.240932292796853176e+01 3.110722630333884808e+01
-4.110407547853083088e+01 -1.448686478703868374e+01 3.455125441568338829e+01
-4.132756853523676455e+01 -2.323356067733104169e+01 3.636819300182605730e+01
-3.951153520178650069e+01 -2.990485804389248869e+01 3.384318237655338635e+01
-4.111798614146414366e+01 -3.192416375983455623e+01 3.597047786596135666e+01
-4.451447545765097402e+01 -3.189282734559481014e+01 4.127962882142037415e+01
-4.312562729616331580e+01 -3.225665381575916513e+01 3.890664729737909511e+01
-3.354342775169283186e+01 -3.191551359264951770e+01 2.729341509933078669e+01
-3.135074188704550124e+01 -3.501762340305214138e+01 2.566963183089842460e+01
-2.609117167351985245e+01 -3.898739662420950935e+01 2.317887719820510029e+01
-3.086149957674058442e+01 -4.251141421216226490e+01 2.740025179732538163e+01
-3.763679318341462476e+01 -3.719567810342667258e+01 3.176203485759560863e+01
-3.958575312920885381e+01 -4.401227548191721439e+01 3.695276436340236614e+01
-4.251456301050137654e+01 -3.743731922764928299e+01 3.803646894853909544e+01
-4.495839010321702744e+01 -3.998105958175125352e+01 4.246441503244113846e+01
-4.942352487619069734e+01 -4.293668000313294897e+01 5.235631453913788391e+01
-5.035070095392734402e+01 -3.823826835598137563e+01 5.319314111409630641e+01
-5.280853169403576430e+01 -4.220771490287899042e+01 6.215406413901905580e+01
-5.045323321766954905e+01 -3.302561006410272171e+01 5.343476672333531496e+01
-5.304433029359739749e+01 -3.392300960078006256e+01 6.075951663179307616e+01
-5.396390320316868383e+01 -2.999489987320035311e+01 6.428754652866837205e+01
-5.341380555653597639e+01 -2.258854069322765667e+01 6.335004094173086742e+01
-5.489771677441154907e+01 -2.244213329360997022e+01 6.792108923735213466e+01
-5.462418268799154930e+01 -3.178347386195977720e+01 6.884780668209441501e+01
-5.501619226713387434e+01 -2.901991551862755614e+01 7.336603040724958191e+01
-5.478613371117518227e+01 -2.206621957404385626e+01 6.737080048278585309e+01
-5.492372762451395829e+01 -1.729926259149175394e+01 6.597290142641031707e+01
-5.426814021493021301e+01 -1.442719609559441096e+01 7.188780015713314242e+01
-5.527787570624758473e+01 -1.730423943313559221e+01 7.765297821104695686e+01
-5.482772232029310544e+01 -2.872472206770154912e+01 7.673865047876552126e+01
-5.398878778612146334e+01 -3.434780210505456921e+01 8.107918329594326678e+01
-5.214424951954299559e+01 -2.822939414735998298e+01 8.899666997206509222e+01
-5.370747765535020335e+01 -1.977575453306027953e+01 8.359563032568303242e+01
-5.274453394928178795e+01 -1.507199395944121534e+01 8.683878473101526652e+01
-5.057654773933245451e+01 -1.718674565782345098e+01 9.344576986928950646e+01
-4.777084858477638818e+01 -1.838376877258428976e+01 9.971560846330180539e+01
-5.028694164095287533e+01 -1.074479721154278877e+01 9.942291314019212223e+01
-4.811094008091902197e+01 -6.338926607379448797e+00 1.047550225573766056e+02
-4.636977036705928867e+01 -3.660053041259345719e+00 1.068454500146890496e+02
-4.434868634130521059e+01 8.676145996924731207e-01 1.059252629248892390e+02
-4.229151431076178369e+01 6.372088639936805521e+00 1.092760262530964610e+02
-4.199388027494296693e+01 9.954415799268247156e+00 1.090537947370428355e+02
-4.243567458695127925e+01 1.267680762561786878e+01 1.077524755760791777e+02
-4.360961434346751275e+01 1.611852344104113399e+01 1.050228416626337093e+02
-4.367428187898678971e+01 1.897453924011838922e+01 9.945669915083635715e+01
-4.602498912573162215e+01 2.340000515573998996e+01 9.702933130083715696e+01
-4.405946206031472911e+01 2.771532009417788345e+01 9.314203445294151607e+01
-4.125865074616683614e+01 3.019411972095969077e+01 9.119701873352073562e+01
-3.900535792517109712e+01 3.256393023746213089e+01 8.728865205522993165e+01
-3.624770600671104148e+01 3.545762292809850180e+01 8.387951051681102399e+01
-3.602940790085176559e+01 3.842979410328815959e+01 7.957638999409914504e+01
-4.171517392364074794e+01 3.151948465976238367e+01 7.369758028798128180e+01
-4.199464214538448914e+01 2.142927121457958606e+01 7.088902302397082167e+01
-4.541623238418395658e+01 1.947005425008038060e+01 6.461748923878667483e+01
-4.339259177744628460e+01 8.911350356346758872e+00 6.064318272206946858e+01
-4.895688048349694554e+01 1.422277701447964660e+01 5.970058690097584986e+01
-4.793468454750910723e+01 8.399546713970124756e+00 5.745868426383140104e+01
-5.047378863607622179e+01 9.042638441787261172e+00 5.518926688887836463e+01
-5.064004353688176252e+01 9.238260121925009116e+00 5.202468139741336017e+01
-4.344461189014373304e+01 6.678954712036812680e+00 5.037764169420142935e+01
-4.363491431904907358e+01 7.263645214519414139e+00 5.004693632548173809e+01
-4.538079877080963342e+01 1.129568907773793285e+01 4.816112180153550071e+01
-3.696281912071947318e+01 1.084079485137496590e+01 4.911944298991352298e+01
-3.835825935200267622e+01 1.900197332148638907e+01 4.697695058615454400e+01
-3.304068328716004999e+01 1.934813033805747295e+01 4.574714352108890125e+01
-3.143149618039649340e+01 2.565742877026232804e+01 4.274434942493167000e+01
-2.367071909059632162e+01 3.017538465080463084e+01 4.006045178115255112e+01
-2.042704624987169382e+01 3.535540801499497832e+01 4.142764294041899120e+01
-1.716892067117481702e+01 3.455501079608340831e+01 3.612317838825197214e+01
-1.756389154717942347e+01 2.849734111507223133e+01 2.774950329447619879e+01
-1.550655579877337686e+01 3.277258472228362507e+01 2.840690268016351183e+01
-1.110354275439289040e+01 3.036137376773203300e+01 2.068155463782773040e+01
-1.343750370503062186e+01 2.293498422644447032e+01 1.980953706450577556e+01
-9.462878650643119727e+00 1.613488688272269655e+01 1.755994071530267320e+01
-1.095349685677206253e+00 1.397122651278868943e+01 1.471403016832709909e+01
-4.729041266322326464e+00 9.727043878657241294e+00 1.476594230261298435e+01
-6.941548626175460868e+00 1.896715898694765201e+00 1.363072182498331131e+01
-1.047993332832061242e+01 -3.592728416847563722e+00 1.364065262209715002e+01
-1.823862133411165587e+01 -9.120185077301499632e+00 1.582331216865372880e+01
-1.496111294202830777e+01 -1.432148225436537814e+01 1.642435032425237296e+01
-2.585942921709283837e+01 -1.328343444209286872e+01 2.134959386004311455e+01
-3.544582422128547705e+01 -1.171878591377063117e+01 3.016991567739205493e+01
-3.981578247220829780e+01 -9.705937791608619136e+00 3.861400263778932640e+01
-3.983308029607462686e+01 -4.627770697960784219e+00 4.585944127977995777e+01
-3.458319686675173443e+01 3.046192311671802599e-03 4.876312310748926393e+01
-4.114578284190628210e+01 -2.471489279925322080e+00 5.125173354205571741e+01
-4.717900319350451355e+01 -6.900295544360261601e+00 5.420760791685756885e+01
-4.843545017371980066e+01 -7.924492647094069753e+00 5.574273566802435198e+01
-4.996624465215262489e+01 -8.285123511470004587e+00 6.175302024808956958e+01
