-1.758721380681390656e+01 -1.458016772732915456e+01 1.769344289719674634e+01
-1.491729174619371179e+01 -1.668769748249277995e+01 1.724010816937493473e+01
-1.267082534049319520e+01 -1.646786805330421544e+01 1.673282498473236046e+01
-1.033227714108778628e+01 -1.616339724548848267e+01 1.651376721297424410e+01
-9.844137185784120447e+00 -2.118583231894800178e+01 1.691011652889710604e+01
-1.317970031667880448e+01 -2.449973328976003017e+01 1.776641334915848347e+01
-1.873254238622735102e+01 -2.408456385280365453e+01 1.963330835005695008e+01
-1.945575808843074128e+01 -1.787388623509463059e+01 1.944637033123012770e+01
-2.241126154734791953e+01 -1.130231590278103226e+01 1.943780731178549104e+01
-2.415918517703232737e+01 -1.444664851086329804e+01 2.122262388078888762e+01
-1.881548852501953206e+01 -2.260733228964213026e+01 1.951361471666791658e+01
-2.295488761031793956e+01 -2.901448238050207351e+01 2.053081715346979763e+01
-2.465368504139973993e+01 -2.089990727110307489e+01 2.219838189911024529e+01
-2.706329426207719280e+01 -1.412504954505632782e+01 2.283500788337778431e+01
-3.217045300455316692e+01 -1.286507375439623502e+01 2.640353288436540424e+01
-3.597003236772684431e+01 -1.153525755338074532e+01 3.082999128514097720e+01
-3.395386689337271946e+01 -1.908943449298757855e+01 2.767194217479254803e+01
-3.562513950380929373e+01 -2.234741377052785083e+01 2.954656233985542713e+01
-3.019898919214006128e+01 -2.957948874886824342e+01 2.480520604890398317e+01
-3.643586093395560965e+01 -2.859729411385558251e+01 3.041821903674008354e+01
-3.776914773071081299e+01 -2.778054604254961646e+01 3.197879020966092867e+01
-3.827531781462835170e+01 -3.146976845418268454e+01 3.234210544521374686e+01
-3.875159903485587165e+01 -3.193056590745430867e+01 3.292912923342305476e+01
-4.039047527198221132e+01 -2.933047176806445577e+01 3.504960611998581044e+01
-4.145287636772877704e+01 -2.689261213203371881e+01 3.657965260302194110e+01
-4.355895269085021937e+01 -2.291177187340957744e+01 3.976792334403603491e+01
-3.901889629364796974e+01 -1.910272815975321237e+01 3.179582000641175910e+01
-4.157430819920637077e+01 -1.313290480483362899e+01 3.618832299436621724e+01
-3.925544102756532538e+01 -2.990761447468878487e+01 3.352934732685298513e+01
-2.996147581392830261e+01 -3.174889836073862170e+01 2.437738673301282688e+01
-2.641175960597649919e+01 -3.693155939000749299e+01 2.272567995767008142e+01
-2.303807113680727525e+01 -4.192988028484225538e+01 2.239235623140666576e+01
-2.648347367580333866e+01 -4.863494292442882738e+01 2.785491620523316669e+01
-3.423085787810703096e+01 -5.052054607281246490e+01 3.593627408947236290e+01
-3.222543002509797816e+01 -4.150535098819332802e+01 2.800542568939840748e+01
-3.639647397509628490e+01 -3.947830279148652721e+01 3.104338790924521163e+01
-3.386262486387585113e+01 -4.833298147269925948e+01 3.349853825599143420e+01
-3.529754824500616905e+01 -5.370415177670949447e+01 3.971689893276698058e+01
-3.951733467575007808e+01 -5.270001810358448324e+01 4.337133257125719865e+01
-3.828642124547354797e+01 -4.451053789978715258e+01 3.531195265183987431e+01
-4.331447516661171449e+01 -4.027596266688615856e+01 3.985557804494328593e+01
-4.036144704289802121e+01 -5.034291956791622624e+01 4.232773378036768008e+01
-3.992894585791390227e+01 -5.606488968267433393e+01 4.750064092773186530e+01
-4.490316576553806271e+01 -4.701418447653020394e+01 4.589423632918851581e+01
-4.995787073130753697e+01 -4.140023062743770765e+01 5.257837845530139020e+01
-4.600083197410020830e+01 -4.975529569374074867e+01 5.017838377348380163e+01
-4.561980810230022598e+01 -5.531580998534971627e+01 5.876079209280601390e+01
-4.922348206143976768e+01 -4.745810087608464301e+01 5.527319845985493885e+01
-5.185375764619573147e+01 -3.931467109566935392e+01 5.740361267907201182e+01
-5.097774609315757743e+01 -4.473492278727090365e+01 5.792415869461069633e+01
-4.699517336082885777e+01 -5.471255981010412484e+01 6.434725555772683947e+01
-4.765471190960960257e+01 -5.430736857009216578e+01 7.032140950524399159e+01
-5.368601125062184565e+01 -4.190035884945910993e+01 6.759834322144797625e+01
-5.425529470302694790e+01 -4.053534338639232715e+01 7.130114577785548136e+01
-4.926582272138824692e+01 -5.173710870259867534e+01 7.116202746324916006e+01
-4.630949639482503244e+01 -5.483108348108800101e+01 7.743541045895995012e+01
-4.781259948745815791e+01 -5.060072805820672670e+01 8.493171996510704957e+01
-5.416374258270752762e+01 -3.955480350418321223e+01 7.553527670684502482e+01
-5.205957835353444807e+01 -4.520766050067990705e+01 8.041348806454971054e+01
-4.761481233994703643e+01 -4.481576541940972902e+01 9.216252077012700283e+01
-4.979005157989575991e+01 -4.099660707743427679e+01 9.087953455982187734e+01
-4.863459318592828140e+01 -3.373810987692621666e+01 9.534146814776727297e+01
-4.923269663847707989e+01 -2.287164919157828535e+01 9.511678102186306205e+01
-5.041795322152086101e+01 -1.407057731491053687e+01 9.450427334241408062e+01
-5.177914528328773258e+01 -2.219652435400303148e+01 8.842752504924214918e+01
-5.343628535707233596e+01 -3.223906434924748510e+01 8.405777623231892903e+01
-5.335854201406704078e+01 -2.080972630761979758e+01 8.383933811842143768e+01
-5.361515559043021995e+01 -1.388661523283025190e+01 7.754918896667663830e+01
-5.292388170801524439e+01 -1.268994409757749509e+01 7.061243291203277295e+01
-5.271064332843758393e+01 -1.319650570104465714e+01 6.365701457957720777e+01
-5.344759553118370832e+01 -1.479038322291356167e+01 6.301625911663063562e+01
-5.375822913200937592e+01 -1.980423331278498722e+01 6.295670739073921141e+01
-5.458454526303341936e+01 -2.743358224923278499e+01 6.752500313515315611e+01
-5.556707834842234206e+01 -2.123440506268158856e+01 7.441053819489752641e+01
-5.453348930928245863e+01 -3.147801464102474256e+01 6.744197409635808071e+01
-5.383922149182080830e+01 -2.836275071284376281e+01 8.308517847459756922e+01
-5.305655742875200076e+01 -2.037044552151638754e+01 8.525814344720674853e+01
-5.239193408708939614e+01 -1.276290846524611311e+01 8.781553307998456148e+01
-4.953310906224021437e+01 -1.822647466671580219e+01 9.571554362198321542e+01
-4.746356949418913018e+01 -1.989982548979489252e+01 9.892321164087866237e+01
-4.601446015509264953e+01 -1.534466669892856316e+01 1.021747026593873215e+02
-5.036076140542058965e+01 -1.214491398236870623e+01 9.720511262802574493e+01
-5.050336352589175704e+01 -9.046822316798142083e+00 9.965748499505639302e+01
-4.798308499305767327e+01 -6.729478131134271734e+00 1.043851694812608457e+02
-4.477521115783963523e+01 -2.750556188332069496e+00 1.077231707453215677e+02
-4.171595346125207016e+01 7.103396284328766797e-01 1.103588498373869697e+02
-4.438136944670856110e+01 -2.172540392627894335e+00 1.037603644956839162e+02
-4.295408790439938684e+01 1.125779585194891297e+00 1.090695975312398787e+02
-4.171120418107688010e+01 5.497847681327726832e+00 1.095916924115942948e+02
-4.026603137111504793e+01 9.925980898539080499e+00 1.109316573608373346e+02
-4.200678514693464649e+01 1.126897349614111477e+01 1.083853323977123182e+02
-4.318888680543705050e+01 1.430296547347219871e+01 1.053378666727774089e+02
-4.318082380021604649e+01 1.713403161287547505e+01 1.000528290935528730e+02
-4.562791088541024465e+01 2.272421339497762460e+01 9.959482588374021361e+01
-4.463352679733219475e+01 2.180158993183596294e+01 9.323823902281674236e+01
-4.494398130601007324e+01 2.485525758569886534e+01 8.972225766616429610e+01
-4.346069440606510170e+01 2.412871746144375606e+01 8.457012111501603613e+01
-4.183763408641522119e+01 2.327453478406360432e+01 7.832678102435102119e+01
-4.329575631242761347e+01 2.649206120424665301e+01 7.294526501072800784e+01
-4.350923237262134080e+01 2.312083756488996755e+01 7.007114198900444535e+01
-4.124952363232745256e+01 2.187714484857275465e+01 7.660903760249561856e+01
-4.346363075528188347e+01 2.522573001837722018e+01 7.205359845704037980e+01
-4.538413175229095486e+01 2.279187953258929156e+01 6.694152848914222886e+01
-4.146964660281088300e+01 1.567379479821903487e+01 6.633507836176363526e+01
-4.477349996410703170e+01 1.915215178966866461e+01 6.508267584994973731e+01
-4.589868681894932934e+01 1.589839937582965490e+01 6.213099090295145288e+01
-4.307885421436191109e+01 6.259382338810468127e+00 5.974280115892111098e+01
-4.638555946049615386e+01 1.635392130581539050e+01 6.186658105520291429e+01
-5.005386076557016395e+01 1.439796667617071080e+01 5.926422738088103870e+01
-4.855687979599758819e+01 8.704197390541423829e+00 5.697020415325459908e+01
-4.509886164559350163e+01 2.955852335141145204e+00 5.624337590547406762e+01
-5.161246198416455400e+01 1.191900525473712946e+01 5.689735349443503765e+01
-5.219015729145706928e+01 1.056276929384566188e+01 5.121827927349750098e+01
-4.629791853340077523e+01 4.832741109930850598e+00 5.360133896498268768e+01
-4.717379884551581881e+01 6.472613071188931144e+00 5.170432616825701189e+01
-4.274853117986708639e+01 3.330984021893328872e+00 5.195859200757672625e+01
-4.968806580956089647e+01 9.442254040506952606e+00 5.011681419183855724e+01
-4.386662485191726546e+01 8.780615911925877981e+00 4.966144373966994863e+01
-3.542743715208416688e+01 6.296361206708127156e+00 5.045825619648144311e+01
-3.887853247992904926e+01 1.327235160092311617e+01 4.832231509549774273e+01
-4.923569387569642686e+01 1.120077891998133168e+01 4.876585614099712984e+01
-3.776338304160242387e+01 1.725323009532380070e+01 4.746197055044194713e+01
-3.195533658382919384e+01 1.755325823351429904e+01 4.629086046080533379e+01
-3.703499825391281775e+01 1.951416301718037971e+01 4.697418404902418843e+01
-3.428864788172558065e+01 2.671263788751542734e+01 4.480194667124987973e+01
-3.166014059073711451e+01 2.435957213479670713e+01 4.226409615955822119e+01
-3.033278376100872720e+01 3.003217723917140347e+01 4.331080647578482967e+01
-2.615574337480859413e+01 3.184507583502363559e+01 4.167366576835729575e+01
-2.144908385853227628e+01 3.481549002839796003e+01 4.076271548501358666e+01
-1.742726422691822563e+01 3.526267557136847586e+01 3.520545193735756584e+01
-1.951083835717150805e+01 3.046875112007799657e+01 3.178190898582215596e+01
-1.627144873249761758e+01 2.992355663456922343e+01 2.517410438294541564e+01
-1.594067593488921375e+01 2.848859170782063188e+01 2.257862301478871814e+01
-1.360394610888801026e+01 3.317420095278248482e+01 2.390148512981727436e+01
-1.626608231421283790e+01 3.613257705037679557e+01 3.398966582427419780e+01
-2.202954003538803818e+01 3.719359799264204014e+01 4.205227518447668444e+01
-2.454178235269779407e+01 4.216962471351581598e+01 4.552156609206303983e+01
-2.313678252473994235e+01 5.002506837872164169e+01 4.493999272482233209e+01
-3.250912599423816118e+01 4.893117162047971647e+01 5.072987471833448581e+01
-3.538394249632568744e+01 5.293000437869838493e+01 5.234014762004085242e+01
-4.010933364567858916e+01 5.343834625016799578e+01 5.666166672933991322e+01
-3.921249515543377129e+01 5.251161911407568539e+01 6.270651857425445996e+01
-3.924958876763759008e+01 5.081192749618671201e+01 6.714172121485717071e+01
-3.605386991323445045e+01 4.617506217520197254e+01 7.451014575476165192e+01
-3.363302103708087998e+01 4.425141784665923694e+01 8.095368662685882555e+01
-3.722151169988711672e+01 4.092668277617804051e+01 7.392897021948328984e+01
-3.886555913994556022e+01 5.130951110533372628e+01 7.216977960248323143e+01
-4.002432169408189111e+01 5.388367862073840797e+01 6.363286095427156397e+01
-4.078860556587460451e+01 5.642981347638070133e+01 5.640900101058696237e+01
-3.146893855531999407e+01 5.220594859802977794e+01 4.772962156964331371e+01
-3.083120537561410401e+01 5.053497063277698942e+01 4.721465696403060974e+01
-1.985589161046516438e+01 4.313638979421618558e+01 4.300459177663356058e+01
-1.841489180534398429e+01 4.633569090511329591e+01 4.228637171883246992e+01
-1.548581996890078472e+01 3.765175761949504363e+01 3.416864056490385337e+01
-1.599057587384459111e+01 3.122819439799829411e+01 2.549573879815284272e+01
-1.295357822860921715e+01 2.668033919412374644e+01 1.924955271069438822e+01
-9.524640965246305768e+00 1.917470271693417772e+01 1.692514916331174391e+01
-1.554736171357887997e+00 1.567535371399202404e+01 1.423180548555615132e+01
-3.628578415138633773e+00 1.166722570903309020e+01 1.447322852509637414e+01
-9.179967577471586537e+00 1.494470165337151002e+01 2.035704825774791971e+01
-4.731994127493919677e+00 1.302796836097172672e+01 1.497181144560954635e+01
-4.674329580221183278e+00 8.589442467537310222e+00 1.397320747260050666e+01
-7.015345800880083971e+00 1.111036175567866735e+01 1.548872102376526527e+01
-2.240557805791979717e+00 5.746216453259194168e+00 1.358099540502098534e+01
-8.768468509080548756e+00 4.056676391098164913e+00 1.450423119862489330e+01
-1.080125452561549082e+01 -4.556699710519382052e+00 1.435536716427077408e+01
-1.388634928884749797e+01 -1.142077673651692749e+01 1.623578581907145235e+01
-1.990387629606539122e+01 -7.004826774499832709e+00 1.672758199053828321e+01
-1.351068353768818042e+01 -1.386432487545292247e+01 1.682638764240095952e+01
-8.954448135507846018e+00 -1.927636916528132360e+01 1.697049909084284991e+01
-1.922890390536093719e+01 -1.381812819014470506e+01 1.875607565348173011e+01
-2.948676113616522798e+01 -1.096544102817105681e+01 2.445219549971830020e+01
-3.385344018630524943e+01 -1.402953793257765369e+01 2.765848220619886888e+01
-4.022532433733266544e+01 -1.807233210707713056e+01 3.329151603889363287e+01
-4.394296391467810281e+01 -1.863415079879840164e+01 3.888441050602318683e+01
-4.642683224829710298e+01 -1.411417845949293337e+01 4.357710254023368179e+01
-4.110011783331174229e+01 -1.193713323415366290e+01 3.725284954520884639e+01
-3.876403136094285173e+01 -1.182647012633802319e+01 3.408680834279834926e+01
-3.956203350699564680e+01 -8.672983697910012779e+00 3.882181035921871626e+01
-4.428644107873282110e+01 -1.000621515899956648e+01 4.363774416456180916e+01
-4.212205679715651740e+01 -6.229821622239910539e+00 4.500156405873281074e+01
-4.495300837231582136e+01 -7.081682409570873915e+00 4.749526465373628525e+01
-4.797682380374618560e+01 -1.270329762887473635e+01 4.870410027971502132e+01
-4.897171594315369703e+01 -1.331206835267894917e+01 5.191615805081005419e+01
-4.714279545175361363e+01 -8.349871462440518144e+00 4.999739786783743511e+01
-4.665324505932477450e+01 -5.425425259867552086e+00 5.408361067073974482e+01
-4.882576139667781945e+01 -9.812543418044072041e+00 5.358646319457625395e+01
-5.058402552746048286e+01 -1.410755280904396614e+01 5.626891402166234002e+01
-5.140251139631283195e+01 -1.181880907764036692e+01 5.862525526714762236e+01
-4.881459772609360925e+01 -6.432494419860773860e+00 6.238768242512423967e+01
-5.152545677049283768e+01 -1.068656658624016131e+01 6.517163103828147541e+01
-4.760116660323234328e+01 -6.170847395262484270e+00 6.788926299817717336e+01
-5.327599923082647138e+01 -1.317412510610387244e+01 7.120007513089967688e+01
-5.374764683648567143e+01 -1.380645098934203929e+01 7.552817177463862208e+01
-5.310012394412495951e+01 -1.270592594192686420e+01 7.981312266210852613e+01
-5.269559806988769424e+01 -1.233417233513759470e+01 8.713303858964172832e+01
-5.194453167922182502e+01 -1.215160255360007113e+01 9.215652519494028638e+01
-5.034357984795684615e+01 -1.249280293013563892e+01 9.757096177163180073e+01
-5.312307722585512693e+01 -1.359065073049777084e+01 8.463246115869128516e+01
-5.231772157150845715e+01 -1.207030128011189163e+01 6.724657803616082674e+01
