3.823543416839400777e+01 -2.340505321016358948e+02 -1.613241380419213783e+03
3.983192662974678910e+01 -2.312827459425168399e+02 -1.611989881536925623e+03
4.120162969872678360e+01 -2.296140394423528903e+02 -1.612821509241151944e+03
4.234234854848318719e+01 -2.277760516954838295e+02 -1.613785904393198734e+03
4.240277139349470303e+01 -2.256594156231808199e+02 -1.609188467250557323e+03
4.040744545613415539e+01 -2.271820124421602429e+02 -1.605121338211609554e+03
3.642036792496713105e+01 -2.313539160607066663e+02 -1.604030397968913803e+03
3.602038649830178940e+01 -2.339528976134542404e+02 -1.609706295518439219e+03
3.453066270209265554e+01 -2.385179560019919904e+02 -1.615078592566608449e+03
3.232914708384953428e+01 -2.383490745085726132e+02 -1.611724126472837497e+03
3.643018331545425781e+01 -2.319253809395892745e+02 -1.605400343686571432e+03
3.409715041333281960e+01 -2.331313256312541284e+02 -1.598166841578334015e+03
3.152359698017818346e+01 -2.364106678832885962e+02 -1.605524541709458617e+03
2.965935804953561572e+01 -2.403076728002573645e+02 -1.611307981199501683e+03
2.426512648632267855e+01 -2.436702882373218699e+02 -1.611300021210505292e+03
1.861918352647668229e+01 -2.455810447584562155e+02 -1.611820680456503396e+03
2.265651595254023221e+01 -2.427972501287936211e+02 -1.604961072524591145e+03
2.040943544095343043e+01 -2.424913920357816437e+02 -1.601529037869182730e+03
2.726798497685746980e+01 -2.374974529512583956e+02 -1.595850363212316779e+03
1.956073090045712348e+01 -2.409299817041583367e+02 -1.595420047991987303e+03
1.755736526718226997e+01 -2.417046224759573647e+02 -1.595936353419244369e+03
1.718299793838724554e+01 -2.408674651669530817e+02 -1.592309014882541987e+03
1.647375682981785872e+01 -2.409021523975744401e+02 -1.591780291072265072e+03
1.375608233849983719e+01 -2.422613742769491694e+02 -1.593950449666152281e+03
1.181926217758300623e+01 -2.433102151881294049e+02 -1.596086230165356938e+03
7.876048768750742113e+00 -2.450665878077305138e+02 -1.599523371447734462e+03
1.682951836338826013e+01 -2.455111870153639302e+02 -1.603802748913038840e+03
1.151668977202605504e+01 -2.477805638969687152e+02 -1.609102445538624579e+03
1.563115416895155363e+01 -2.417150043166192859e+02 -1.593606692869853077e+03
2.785117781556969163e+01 -2.368005591521698250e+02 -1.593820583622897857e+03
3.103577045551635294e+01 -2.328135709369065580e+02 -1.589801766575312740e+03
3.293819306137548608e+01 -2.285058546403501794e+02 -1.586020171819348661e+03
2.684815832476990494e+01 -2.272375245186356381e+02 -1.579094058859438064e+03
1.640076184759483624e+01 -2.301064689296096049e+02 -1.575701880904214477e+03
2.405137615185920907e+01 -2.343151459554133567e+02 -1.584184155250884487e+03
1.948900684144771844e+01 -2.373170864716402377e+02 -1.585137510319186504e+03
1.867692612002512931e+01 -2.314359222434786716e+02 -1.577680572521781414e+03
1.265917021574520618e+01 -2.285364763522663623e+02 -1.572684943186922737e+03
7.560119645651674603e+00 -2.310202382662462526e+02 -1.572704365107902277e+03
1.504841607790001490e+01 -2.356966377255739360e+02 -1.580160439356882534e+03
8.665498237206499255e+00 -2.395094286970689836e+02 -1.583089341915259638e+03
8.062726360555174665e+00 -2.328887549455572525e+02 -1.574605304228662817e+03
3.775985609409438837e+00 -2.286893002980575318e+02 -1.569739566666842620e+03
2.809431649524704255e+00 -2.363967389600768456e+02 -1.576732407782297287e+03
-5.597308626559538425e+00 -2.397954087666878991e+02 -1.581150556438565445e+03
-1.423546614903756335e+00 -2.347867579350076142e+02 -1.574170701857177846e+03
-8.847374646033756562e+00 -2.293128483972385823e+02 -1.569738397414320843e+03
-7.486327877173323486e+00 -2.362270694579416670e+02 -1.575840402545006327e+03
-1.086338350225210547e+01 -2.401336953554028923e+02 -1.582989264859260857e+03
-1.074026872542134470e+01 -2.375106685353402156e+02 -1.578139309617341951e+03
-1.452942360582443371e+01 -2.284428721221730427e+02 -1.570387685726676182e+03
-2.026404500522107810e+01 -2.267387128571010066e+02 -1.571094541462874304e+03
-2.079257762790700781e+01 -2.368334690460262379e+02 -1.580869105529247690e+03
-2.446179181714781237e+01 -2.362564778926920894e+02 -1.582318948995894743e+03
-2.180203770141041275e+01 -2.285784633947821476e+02 -1.573133768966408070e+03
-2.617862425121546721e+01 -2.225621713723926405e+02 -1.571611402399732924e+03
-3.381503983322041051e+01 -2.221453965321265116e+02 -1.575837670010091870e+03
-2.832873553603074868e+01 -2.347781210242000896e+02 -1.583645188875983649e+03
-3.166754244694341480e+01 -2.292748138947945336e+02 -1.579315613327770052e+03
-4.058404483573133348e+01 -2.208421666891681241e+02 -1.582024070904172504e+03
-4.047124778087523111e+01 -2.244031791463955585e+02 -1.584899858954744559e+03
-4.438992670031839793e+01 -2.238350005197998200e+02 -1.592532083114699390e+03
-4.491077085157350268e+01 -2.277651039216555660e+02 -1.602669695678391918e+03
-4.522608870578116580e+01 -2.317260654367393045e+02 -1.610635260537844715e+03
-3.988047955005363576e+01 -2.328546021403946611e+02 -1.601977224005672497e+03
-3.612722655641282188e+01 -2.329674096512952985e+02 -1.591556389397329440e+03
-3.640287226386141128e+01 -2.364836606200194353e+02 -1.602430373298167979e+03
-3.107883280222942801e+01 -2.413469986555117544e+02 -1.608393915936245094e+03
-2.452451496646362727e+01 -2.439000005627813152e+02 -1.609136590102575610e+03
-1.807279948162150163e+01 -2.463522706902087975e+02 -1.608115973637459547e+03
-1.771867442343173593e+01 -2.467581801562524504e+02 -1.606326017041425530e+03
-1.756893872524211986e+01 -2.455167630091705462e+02 -1.601460300747462043e+03
-2.173361421732208498e+01 -2.420633875058732940e+02 -1.594354756065328729e+03
-2.868789240920747829e+01 -2.420444548692739488e+02 -1.600555031744542475e+03
-2.145781439265887514e+01 -2.408156221275006601e+02 -1.590516273302475383e+03
-3.557663022272041076e+01 -2.348911943206966271e+02 -1.595039205435807844e+03
-3.759281207415557446e+01 -2.357879068579424313e+02 -1.603060564388417561e+03
-3.999065244403227837e+01 -2.365145738055361164e+02 -1.610714249950975727e+03
-4.578523644316591401e+01 -2.292049234577869470e+02 -1.607050179701257548e+03
-4.779128095257365771e+01 -2.256190706916706858e+02 -1.606350410820637308e+03
-5.036656304687843999e+01 -2.244563043858036337e+02 -1.611393969086663219e+03
-4.775082761660918607e+01 -2.311817753421406110e+02 -1.612717428817763675e+03
-5.018251221033837339e+01 -2.312682857206925746e+02 -1.615833847202807419e+03
-5.356747293629206297e+01 -2.279038468318577770e+02 -1.619194722149311701e+03
-5.547826783391151650e+01 -2.250116613994034083e+02 -1.624219525935728598e+03
-5.678635460596670725e+01 -2.223711973645229421e+02 -1.628646773439794742e+03
-5.172969410614143726e+01 -2.264387500908275683e+02 -1.624543037604696792e+03
-5.613451353951286649e+01 -2.240846191984422262e+02 -1.628562942604055706e+03
-5.629707702750572196e+01 -2.241392468696946025e+02 -1.633134912789973441e+03
-5.712532906448623748e+01 -2.237081501148472285e+02 -1.637891019228692130e+03
-5.557348982051210839e+01 -2.266436928625437304e+02 -1.638431396301101586e+03
-5.341162528355897621e+01 -2.298152283843937767e+02 -1.640702348337518060e+03
-4.871469818056742440e+01 -2.327951197619479444e+02 -1.642939700763647352e+03
-4.954360056403767487e+01 -2.368014338376416958e+02 -1.647490580114415252e+03
-4.330066272159318430e+01 -2.382117158727440653e+02 -1.646357856861952541e+03
-4.035670000614912567e+01 -2.408247408997482637e+02 -1.648865560349380758e+03
-3.502117589428598876e+01 -2.413895311245086930e+02 -1.648168634187494717e+03
-2.862794313358766374e+01 -2.422325210349135318e+02 -1.647297318392990519e+03
-2.445858793124786246e+01 -2.466351850701837805e+02 -1.649458877525817570e+03
-2.177556023697901821e+01 -2.469418162996319950e+02 -1.645940547853977705e+03
-2.675966721923099101e+01 -2.419867237111869258e+02 -1.645994113196243006e+03
-2.365792266632365681e+01 -2.467506478258238189e+02 -1.648127543897669511e+03
-1.967250365782049926e+01 -2.497158847033044253e+02 -1.644800530640939087e+03
-1.720636015682613618e+01 -2.444025341322193583e+02 -1.639139740239464572e+03
-1.756698454217556105e+01 -2.488214441772442740e+02 -1.641359224528929417e+03
-1.519054964508721639e+01 -2.499822709875745375e+02 -1.637675417727327385e+03
-1.143479147967448739e+01 -2.455580055265542967e+02 -1.629138104839498510e+03
-1.516835390701061215e+01 -2.506480547466354096e+02 -1.637941306991407600e+03
-1.420593303805178209e+01 -2.542612645915859844e+02 -1.634767524025980265e+03
-1.125081180577771534e+01 -2.521479836428941042e+02 -1.629598016756947118e+03
-8.921915436696082224e+00 -2.476959809181278445e+02 -1.625094068139678711e+03
-1.257398791342534139e+01 -2.557985666199952846e+02 -1.631742621206788044e+03
-7.571252323903465253e+00 -2.581616106457139495e+02 -1.629789763964067333e+03
-7.085373778457650928e+00 -2.503655460242814286e+02 -1.626294628412890006e+03
-5.785767527924335241e+00 -2.523846103763164024e+02 -1.627430148847460941e+03
-4.072225761961448143e+00 -2.475010655059552676e+02 -1.625777199293321701e+03
-5.496012866383509277e+00 -2.561007098489087070e+02 -1.629371062826576917e+03
-2.675469509867653528e+00 -2.510550591403450369e+02 -1.630429479656760577e+03
1.524835932107251324e-01 -2.426893624029756040e+02 -1.630639527055927829e+03
3.823915594634854642e-01 -2.486597379548631466e+02 -1.636065253129496341e+03
-4.157460302778616779e+00 -2.567901578158817983e+02 -1.631060759932189285e+03
1.445595983746187585e+00 -2.492597923918390848e+02 -1.640107613283916180e+03
4.870691033256974833e+00 -2.448070719212655320e+02 -1.642014685305146259e+03
2.087460024509091738e+00 -2.495182010433947539e+02 -1.642431733175189947e+03
4.870062129557567232e+00 -2.502205284523352020e+02 -1.649904547757841328e+03
8.361279578405763857e+00 -2.482499455704626428e+02 -1.648226793882679885e+03
7.697187002988442828e+00 -2.484188810835971708e+02 -1.654106110947898969e+03
1.081448858096635490e+01 -2.460240575432157470e+02 -1.656927767993870020e+03
1.343447991687884269e+01 -2.432345794835464119e+02 -1.661070266304725919e+03
2.012348504002544303e+01 -2.421292595004418331e+02 -1.662207659989715012e+03
2.260727949963179384e+01 -2.438358203528293302e+02 -1.656733899465041077e+03
2.997884839357701381e+01 -2.435240969689053259e+02 -1.656604422011377210e+03
3.254411549905318424e+01 -2.438412322181164882e+02 -1.655113151268569482e+03
3.208393180036077297e+01 -2.427260094031877316e+02 -1.660377152929672320e+03
2.166746429653283457e+01 -2.418807097532455259e+02 -1.663274224084828347e+03
1.191629714078918312e+01 -2.439455610968622921e+02 -1.663271383585845342e+03
7.506955994799454857e+00 -2.462442080187507258e+02 -1.667558820556340379e+03
8.262542957883653116e+00 -2.476671923424582928e+02 -1.675396195833240654e+03
-7.937015654899610695e-01 -2.531008188575667361e+02 -1.672076511547964401e+03
-3.612587796652206862e+00 -2.561596710975190945e+02 -1.675166093324960912e+03
-9.504300231092344120e+00 -2.586606041068967556e+02 -1.674621741364206173e+03
-1.460912720292631661e+01 -2.551769775474265032e+02 -1.674529742064690709e+03
-1.859313249163741943e+01 -2.529092363700922022e+02 -1.673286198013463945e+03
-2.380213322989358460e+01 -2.457749061808085855e+02 -1.670462288797371912e+03
-2.860429917223852669e+01 -2.405105906303489292e+02 -1.669908827144078487e+03
-2.351614917777348523e+01 -2.454110037109534233e+02 -1.665074114080901836e+03
-2.304323309652373553e+01 -2.507120360992541350e+02 -1.674308624015007808e+03
-1.584595761263456382e+01 -2.559257765723571652e+02 -1.675673975599235519e+03
-9.683735164203127965e+00 -2.602634149297927593e+02 -1.677243368157495297e+03
2.221457733626081676e+00 -2.544084041723604344e+02 -1.675239849683936654e+03
3.025370139529542257e+00 -2.535533942945809258e+02 -1.673795293535347810e+03
1.167171165044854320e+01 -2.435043566886679685e+02 -1.669650564205002411e+03
1.277295561997630102e+01 -2.435269979155170574e+02 -1.673058583744617636e+03
2.175539705496056087e+01 -2.415998804971373204e+02 -1.664966014156258780e+03
2.974238350843358347e+01 -2.435515533568514570e+02 -1.657956364487370365e+03
3.687900964631474210e+01 -2.420452155975854396e+02 -1.653991431169538146e+03
4.073065512753177586e+01 -2.377219749051739086e+02 -1.647669290824894006e+03
4.659452803928098774e+01 -2.308516187349019901e+02 -1.646472575903534562e+03
4.570560304759918324e+01 -2.313193142885393172e+02 -1.642066299690163760e+03
3.792946429464813463e+01 -2.347533634916126744e+02 -1.644045712989464391e+03
4.474031184942941763e+01 -2.324880659629044999e+02 -1.643076232437483668e+03
4.587113376025050826e+01 -2.314814928881894787e+02 -1.638785649766927691e+03
4.342202327914906590e+01 -2.336654826617008496e+02 -1.640619830468775945e+03
4.734811509412023867e+01 -2.286680457101823265e+02 -1.636769700700062458e+03
4.391681687808100776e+01 -2.334167598283272298e+02 -1.633306113704029940e+03
4.360463646707363239e+01 -2.325971026067232685e+02 -1.624498427697608349e+03
4.093504878532797875e+01 -2.324066233741430381e+02 -1.617217881241077748e+03
3.783486540913231977e+01 -2.387552214824792998e+02 -1.619674967710190003e+03
4.065814026861054487e+01 -2.310979005041056666e+02 -1.615056532379736382e+03
4.262620567584040998e+01 -2.254510733231032020e+02 -1.611273632184717371e+03
3.656266030600924211e+01 -2.352745345406592890e+02 -1.613571053962611813e+03
2.705557799648612161e+01 -2.427173901192986420e+02 -1.613733925414415808e+03
2.248551950048869230e+01 -2.442635368167767353e+02 -1.609801897191765420e+03
1.492761627312905404e+01 -2.462676826975207973e+02 -1.604554263379624217e+03
8.335351726868765354e+00 -2.470610238481962710e+02 -1.603401175889177011e+03
2.842257288767967793e+00 -2.487047195518434251e+02 -1.607369209193309189e+03
1.068655242701672847e+01 -2.473096863926216713e+02 -1.610472514622329300e+03
1.452203504765368791e+01 -2.465972128549379931e+02 -1.610996745249123933e+03
9.739002735996237448e+00 -2.463504646194369059e+02 -1.614169007121795858e+03
3.478484345511105857e+00 -2.480888801904723664e+02 -1.611916326000342451e+03
2.950908795267878304e+00 -2.468279303485016669e+02 -1.616268036204546206e+03
-4.406328616723840241e-01 -2.480107748168229875e+02 -1.614833874277701852e+03
-2.527899932795541815e+00 -2.484169167914785135e+02 -1.608695009083048262e+03
-5.835863634375073161e+00 -2.478006337882189030e+02 -1.608098939710413333e+03
-3.559723452049496473e+00 -2.485093400172836198e+02 -1.613194713462494747e+03
-7.215503721039354446e+00 -2.473412783740313898e+02 -1.616474969987753411e+03
-7.454446448889839871e+00 -2.480746487627976649e+02 -1.611615045829022847e+03
-1.042768287835193064e+01 -2.472025225224841165e+02 -1.607240871413480590e+03
-1.301179027094620722e+01 -2.476635640246451828e+02 -1.609378730334819920e+03
-1.562500443892680835e+01 -2.455667596878352015e+02 -1.615594843602899800e+03
-1.908140217604569955e+01 -2.454888595694881985e+02 -1.610985776138600158e+03
-2.015790852258614052e+01 -2.423912893537073217e+02 -1.616679938890246149e+03
-2.518260677712062545e+01 -2.438200889735651913e+02 -1.608622517458936272e+03
-2.929361612232645484e+01 -2.422969681122974066e+02 -1.608255893605808296e+03
-3.298530050723654483e+01 -2.403549083323024718e+02 -1.609865587861648692e+03
-3.951126727943616856e+01 -2.371817721650420765e+02 -1.610972825715685758e+03
-4.379343316030828248e+01 -2.345731713942471117e+02 -1.611804154476908025e+03
-4.806199240162357000e+01 -2.309137177378171657e+02 -1.612423338493026677e+03
-3.734992506576625715e+01 -2.381700607078594203e+02 -1.609434563882799011e+03
-2.123545384185894136e+01 -2.449169476549701301e+02 -1.609614357732350300e+03
