4.080524880545340238e+01 -2.286449620884278318e+02 -1.610058735885960687e+03
3.819857269630855967e+01 -2.303930009322436661e+02 -1.606576320715252223e+03
3.910149683439726687e+01 -2.329146885975304997e+02 -1.613532476618706596e+03
3.568359234184622153e+01 -2.390009100742580017e+02 -1.617446941075970244e+03
3.482028071765993360e+01 -2.375467161119938169e+02 -1.613666406301418419e+03
3.385165765778489089e+01 -2.348072074199206725e+02 -1.606146311862758921e+03
2.938656520150592755e+01 -2.387467424378160672e+02 -1.607138943538544936e+03
2.769430442132514969e+01 -2.422927885442068430e+02 -1.612758793880255553e+03
2.573400701587158323e+01 -2.430393744304928418e+02 -1.611066554343655753e+03
2.364955925662482628e+01 -2.409630344700349838e+02 -1.602069820765502072e+03
2.004752242441688992e+01 -2.442424846599221269e+02 -1.604760667970565464e+03
1.800670336936291704e+01 -2.460452545765122068e+02 -1.610723792226225896e+03
1.326136700508227761e+01 -2.476174454508030465e+02 -1.607812556511888943e+03
1.190105144834659967e+01 -2.444060262042463592e+02 -1.599585027601066713e+03
1.524034086062203386e+01 -2.418110039120842885e+02 -1.593560505229684850e+03
1.273441845939591843e+01 -2.417266322237634029e+02 -1.591347611054057325e+03
6.505669620495829975e+00 -2.425379924012499373e+02 -1.590829356215228245e+03
9.252427182996235899e+00 -2.421799414192277027e+02 -1.590689955294783203e+03
2.373765271362529461e+01 -2.386718906832688560e+02 -1.592851877635759138e+03
2.625070637563401021e+01 -2.364816549164996218e+02 -1.590411579035691602e+03
3.084448960319802779e+01 -2.317261257108322638e+02 -1.587980913585469580e+03
2.520446951803129565e+01 -2.330727313882705971e+02 -1.583579600331569964e+03
1.822631731584748138e+01 -2.387976825336996001e+02 -1.587002629914384443e+03
1.299985793909582554e+01 -2.363123512025750870e+02 -1.580390870084286007e+03
1.052490510987836103e+01 -2.404170565860949864e+02 -1.585868861951913232e+03
5.602628542697686953e+00 -2.399719629893297395e+02 -1.583107938654097097e+03
-5.108634389880194249e+00 -2.389532609299417061e+02 -1.579828626383197161e+03
-6.458346509138365832e+00 -2.408549511000830137e+02 -1.584094403908301729e+03
-1.545650211351428993e+01 -2.381667426054358714e+02 -1.580365823735764934e+03
-6.951547587975070996e+00 -2.424408189890702943e+02 -1.589042381070996953e+03
-1.464832180393898398e+01 -2.414638853617984466e+02 -1.588054282612774841e+03
-1.841473850415869151e+01 -2.420433936604052292e+02 -1.591822694837216432e+03
-1.766361868165523674e+01 -2.442099574791062935e+02 -1.598948528169597694e+03
-2.244382588170589088e+01 -2.437014691634702217e+02 -1.599043232486011675e+03
-2.276318735380051805e+01 -2.402363174324840145e+02 -1.590320560792997867e+03
-2.716556656897665789e+01 -2.396067842038028743e+02 -1.593223665513373362e+03
-2.191316899502770355e+01 -2.439409454981701515e+02 -1.599386210578170676e+03
-2.090594152863370425e+01 -2.460787290554076776e+02 -1.603757973040113484e+03
-2.615910292655060232e+01 -2.440174189299051477e+02 -1.607195978813393140e+03
-3.170063173834384429e+01 -2.416955878246148472e+02 -1.604659291826708113e+03
-3.017701817311572654e+01 -2.381808721767353916e+02 -1.593852283336948631e+03
-3.354326532727282029e+01 -2.339948063172527384e+02 -1.589129117225821119e+03
-4.028108311217654602e+01 -2.310962369740256861e+02 -1.596180637620754396e+03
-3.636889249734880991e+01 -2.371989675208620838e+02 -1.603289109936293698e+03
-3.914158529868515757e+01 -2.365047360144438642e+02 -1.608329039683495466e+03
-4.418752102723104258e+01 -2.313346899796676723e+02 -1.607532956653029032e+03
-4.870642777088583841e+01 -2.260300571105064762e+02 -1.607769684436950683e+03
-4.980503297204529645e+01 -2.306562389118876979e+02 -1.614262895497933187e+03
-5.397421294242707290e+01 -2.279852570886666854e+02 -1.619560240482103836e+03
-5.528842880416338801e+01 -2.264624174481472778e+02 -1.622805501428164916e+03
-5.382513868348813446e+01 -2.264715723638971099e+02 -1.627631472563238731e+03
-5.628483773040254334e+01 -2.250343381494053574e+02 -1.633766865339250216e+03
-5.611949158013517547e+01 -2.259622251117179985e+02 -1.637242887085190659e+03
-5.523387084747187714e+01 -2.276985474112681800e+02 -1.639588285093834656e+03
-5.337655761476807470e+01 -2.308601898686134462e+02 -1.642276936825657003e+03
-4.845409807026690885e+01 -2.340233166019087889e+02 -1.644492105419292329e+03
-4.739629596307275960e+01 -2.383805201384355428e+02 -1.647793396053685456e+03
-4.324073871313358097e+01 -2.395634347797612520e+02 -1.652144071097890219e+03
-4.043391892064381921e+01 -2.386840233325910106e+02 -1.655164083666582428e+03
-3.605547285816130909e+01 -2.390319060465401151e+02 -1.657748043458939492e+03
-3.194960754824086280e+01 -2.389042278681877747e+02 -1.661023087864709623e+03
-2.806847958509575847e+01 -2.413517099550995226e+02 -1.663542012031605736e+03
-2.472229142194663609e+01 -2.465063077315298870e+02 -1.654774237971335424e+03
-2.182819286373691625e+01 -2.447885714518429268e+02 -1.644851935850841755e+03
-1.741922646000222130e+01 -2.496602749758620234e+02 -1.641430610534574043e+03
-1.250138360959157069e+01 -2.462786552824505293e+02 -1.631645114560562433e+03
-1.414833141669083716e+01 -2.530854697698538303e+02 -1.634964133735818450e+03
-1.142877932330276280e+01 -2.513215890387306501e+02 -1.629535157379590828e+03
-1.042425842471055830e+01 -2.546212056476159660e+02 -1.629197015747484556e+03
-7.615187508599518651e+00 -2.560945685844399122e+02 -1.629059785607846379e+03
-3.063137958014628737e+00 -2.497604857057316963e+02 -1.628617903810762527e+03
-2.865172387878210714e+00 -2.502363329667145422e+02 -1.629088884761859617e+03
-2.036888175043557681e+00 -2.537336905681358701e+02 -1.632242330769498494e+03
5.451959527158152241e-01 -2.459421765935775284e+02 -1.634390083359542359e+03
1.567555209863570553e+00 -2.505028937495261800e+02 -1.641552275882298090e+03
4.843944879538597093e+00 -2.465112932234767698e+02 -1.643352626202564352e+03
7.959163352087401222e+00 -2.482567642088305888e+02 -1.649570523527439718e+03
1.337373541055785608e+01 -2.440152962836998825e+02 -1.655937410694815526e+03
1.322138242193634738e+01 -2.422504786731380193e+02 -1.661944529353997950e+03
1.942347086096560815e+01 -2.413214759011858064e+02 -1.661690728203564277e+03
2.716620188236110778e+01 -2.431701903083918239e+02 -1.655087534286665914e+03
2.721696837923844470e+01 -2.424377342684601047e+02 -1.659820761847996209e+03
3.616518934816919284e+01 -2.409991354059809510e+02 -1.658165093005619383e+03
3.633687832295254339e+01 -2.410927586151942421e+02 -1.650334332660872178e+03
4.031176145153230550e+01 -2.364841606375864842e+02 -1.644851561396600346e+03
4.641784071094346587e+01 -2.297402624251799921e+02 -1.645029906555892239e+03
4.507553636358995419e+01 -2.315585335242230940e+02 -1.639919955004824260e+03
4.555469797715771563e+01 -2.315293786599877990e+02 -1.631718278056419649e+03
4.434476391863074696e+01 -2.329013444046639449e+02 -1.625448666155831461e+03
3.943283554763300458e+01 -2.370334026241163201e+02 -1.618078925729614184e+03
4.045300977630380146e+01 -2.323716712792486589e+02 -1.614156642483821088e+03
3.146786954528523594e+01 -2.401218258523068698e+02 -1.612336965616521638e+03
1.944315440493720359e+01 -2.453372261042885896e+02 -1.611744515483340592e+03
9.870705095086115932e+00 -2.463370057037949437e+02 -1.613093349140688133e+03
3.031892516728206033e+00 -2.449974221830136116e+02 -1.618545011260584488e+03
2.321671824942278306e+00 -2.407159188777774261e+02 -1.624758015788628200e+03
-2.516359319248437032e+00 -2.446262696291880161e+02 -1.620673085675582115e+03
-7.477787768683967329e+00 -2.472943430009832468e+02 -1.614927054150929962e+03
-9.344999150695812773e+00 -2.474497931249957787e+02 -1.613713129587551748e+03
-1.543422312509248684e+01 -2.462491168163489590e+02 -1.613436299530661472e+03
