-3.073435235568864243e+01 -2.395960554231230049e+02 -1.663444245585899580e+03
-3.079727538275112408e+01 -2.395184380382801521e+02 -1.663416584618317302e+03
-3.095642897198129617e+01 -2.394459924947710192e+02 -1.663152090990231272e+03
-3.110791651180805673e+01 -2.393437138952899090e+02 -1.663074740002117551e+03
-3.124471250785913412e+01 -2.392686648247953372e+02 -1.662997217206269170e+03
-3.141137909600782052e+01 -2.392477432831646809e+02 -1.662955426876483671e+03
-3.141704141985570686e+01 -2.392420430242148655e+02 -1.663002603482461836e+03
-3.145843412876580203e+01 -2.392020036283826698e+02 -1.662839567343839917e+03
-3.221083957477196691e+01 -2.388495874101352001e+02 -1.662106470561958986e+03
-3.278130601670532940e+01 -2.387619713760766160e+02 -1.662142294468583032e+03
-3.389690585454266625e+01 -2.384550419369380734e+02 -1.662290074172684172e+03
-3.425616195299598132e+01 -2.382784156861854967e+02 -1.662130127326800903e+03
-3.421132461658766033e+01 -2.384193906992172174e+02 -1.662170337914821630e+03
-3.484438600465931302e+01 -2.381985491519352252e+02 -1.661877630085180499e+03
-3.475642405007764069e+01 -2.382666941641839173e+02 -1.661929919989001974e+03
-3.623585310031315032e+01 -2.378257942722688654e+02 -1.662027288583685504e+03
-3.722123838756498060e+01 -2.373404059499595462e+02 -1.662283884031980506e+03
-3.766456628770178838e+01 -2.371558712477915094e+02 -1.662413453279360965e+03
-3.781755175657465884e+01 -2.371687132940868423e+02 -1.662574434839421656e+03
-3.796900555382255504e+01 -2.370780923352073728e+02 -1.662525796881827546e+03
-3.804413988780814293e+01 -2.369823678845704364e+02 -1.662508747892162091e+03
-3.812380669826956137e+01 -2.370499323176329085e+02 -1.662518581374243013e+03
-3.794340151808437156e+01 -2.371010091185731881e+02 -1.662568803616519290e+03
-3.798546035241027141e+01 -2.370807427287548705e+02 -1.662623843624865913e+03
-3.790873515597084520e+01 -2.371160552284027290e+02 -1.662627538709625924e+03
-3.793543989157090834e+01 -2.370456633741969483e+02 -1.662786940811934301e+03
-3.804883466132910996e+01 -2.369793841032293074e+02 -1.663185677041175950e+03
-3.803374065463525255e+01 -2.369110593080156377e+02 -1.663261735220542050e+03
-3.801040299103456732e+01 -2.369716186136076033e+02 -1.663379466853117265e+03
-3.770591716677958516e+01 -2.368484525273152599e+02 -1.664646585424397699e+03
-3.770697483828365648e+01 -2.368422027540763679e+02 -1.665218816076189796e+03
-3.765537563710452673e+01 -2.367597012872047912e+02 -1.665454213419282041e+03
-3.705263834886102359e+01 -2.367646361864653670e+02 -1.666322234860373783e+03
-3.694839362449033615e+01 -2.367695002155334123e+02 -1.666644992923661675e+03
-3.677780556830737169e+01 -2.366739850203044853e+02 -1.667219622198918387e+03
-3.661933407832493970e+01 -2.367052943563752194e+02 -1.667750303105848616e+03
-3.643018135350058628e+01 -2.367190252275652540e+02 -1.668018274146317935e+03
-3.618110206941345552e+01 -2.367107080609605703e+02 -1.668627671985719644e+03
-3.621330197021261199e+01 -2.366510263875136104e+02 -1.668809091378258927e+03
-3.607472888528820931e+01 -2.367844105418658955e+02 -1.669015805333928711e+03
-3.565078971396567908e+01 -2.368715451480479146e+02 -1.669395305762588350e+03
-3.561633517790025394e+01 -2.368712467835121913e+02 -1.669734746955916762e+03
-3.566631622574027460e+01 -2.367346707733909170e+02 -1.670187807963661498e+03
-3.551089228414755894e+01 -2.366217036443526638e+02 -1.671033002511335781e+03
-3.554223160565980777e+01 -2.365283366134291896e+02 -1.671265761452334345e+03
-3.539406938966619975e+01 -2.364828946857317078e+02 -1.671583936910775265e+03
-3.544220429513281090e+01 -2.363351332146898187e+02 -1.672229697004052241e+03
-3.548378854557907403e+01 -2.362299999404831112e+02 -1.672355159171242576e+03
-3.531027641181235310e+01 -2.362258682476823708e+02 -1.673194801481837203e+03
-3.504621027074611561e+01 -2.362729057129246826e+02 -1.673389076895983408e+03
-3.503966530059449269e+01 -2.362858811141567230e+02 -1.673915593455880298e+03
-3.484044060897882389e+01 -2.364509102897315529e+02 -1.674368243437760611e+03
-3.483187202315869513e+01 -2.365092252053847517e+02 -1.674621995405114376e+03
-3.455534096197015970e+01 -2.367462088698382843e+02 -1.674975718181489356e+03
-3.436205758306157065e+01 -2.369818872347337901e+02 -1.675277008040686042e+03
-3.418611557780758403e+01 -2.373608253163565394e+02 -1.675572205836823287e+03
-3.392291374778456259e+01 -2.378151121025348971e+02 -1.675670069700233171e+03
-3.358634171662531287e+01 -2.382795809113566747e+02 -1.675676181533583531e+03
-3.336546754232362844e+01 -2.385349537949357170e+02 -1.675763327899193655e+03
-3.319742241920729953e+01 -2.388513582472564281e+02 -1.675956108747583585e+03
-3.330735424583822635e+01 -2.390119978063459882e+02 -1.676543252459613313e+03
-3.330408220807188968e+01 -2.389816337927510972e+02 -1.676705018739451134e+03
-3.324028845988506475e+01 -2.391527928441489053e+02 -1.677321844398195935e+03
-3.344810757011379110e+01 -2.392193381987849250e+02 -1.678125759253470960e+03
-3.336094899265194158e+01 -2.392497995203638368e+02 -1.678304179904383773e+03
-3.335468914872809876e+01 -2.394634700478851812e+02 -1.678835610387543966e+03
-3.350561754097596179e+01 -2.397471481609566695e+02 -1.679350318808644715e+03
-3.341549762184551753e+01 -2.399187320759346278e+02 -1.679515145120104307e+03
-3.335061745409763034e+01 -2.400659690802074522e+02 -1.679605889368450335e+03
-3.338409625195724573e+01 -2.404851752113200121e+02 -1.680074034828587173e+03
-3.333849839176686203e+01 -2.406016818364948620e+02 -1.680086191000542840e+03
-3.318173364240308842e+01 -2.411454358814795285e+02 -1.680223530797755984e+03
-3.301650285226517667e+01 -2.414528637430181561e+02 -1.680017239470280856e+03
-3.284890084593153858e+01 -2.417144619821766582e+02 -1.679641185585098356e+03
-3.266059621592428641e+01 -2.418844401437831380e+02 -1.679112461762188559e+03
-3.244399343806314562e+01 -2.421113403562096096e+02 -1.678922697548983933e+03
-3.206761202557905222e+01 -2.422347749779559365e+02 -1.677950768153986019e+03
-3.177916216199896837e+01 -2.423723088717370615e+02 -1.677527781721247948e+03
-3.165314449169603961e+01 -2.424785216375590267e+02 -1.677324159534599858e+03
-3.178480751196607912e+01 -2.423679585657454254e+02 -1.677242640181048273e+03
-3.154311930092785587e+01 -2.427179486984061612e+02 -1.676972531288667142e+03
-3.128689676674635223e+01 -2.428263791837589451e+02 -1.676822736793943932e+03
-3.092049925370952224e+01 -2.431867477601797987e+02 -1.676247180588108449e+03
-3.064524964651199923e+01 -2.434103804070819592e+02 -1.676077251097492535e+03
-3.019730282008102051e+01 -2.438025101234698866e+02 -1.675862472968043221e+03
-3.017018815068361448e+01 -2.440157275404789914e+02 -1.675901965822987449e+03
-2.979954903374759567e+01 -2.444626277011123818e+02 -1.675802565095321825e+03
-2.942733682769811310e+01 -2.449655628673299077e+02 -1.675648169062818170e+03
-2.927228492711223851e+01 -2.450825467625539034e+02 -1.675524377430995173e+03
-2.871323282959015444e+01 -2.454689677183341132e+02 -1.675146374501241553e+03
-2.772252810999799522e+01 -2.460429063600856807e+02 -1.674918079399943053e+03
-2.742432278620468367e+01 -2.461658016606087926e+02 -1.674895861883310772e+03
-2.718823064291916580e+01 -2.462439637588041990e+02 -1.674586423706023197e+03
-2.663539988510687806e+01 -2.462780929873496234e+02 -1.674138496792048954e+03
-2.644507900194591343e+01 -2.462386313276009560e+02 -1.673739640226533083e+03
-2.595642536450614557e+01 -2.463084473371177410e+02 -1.673326821115823805e+03
-2.560814313900016259e+01 -2.462615143854974349e+02 -1.672848729713745115e+03
-2.534629085131808779e+01 -2.456545974487249566e+02 -1.671427552347062147e+03
-2.538089836783345277e+01 -2.455827956271690482e+02 -1.671304746225139070e+03
-2.528733312509348252e+01 -2.451832540503347388e+02 -1.670321152845238885e+03
-2.521989423344528802e+01 -2.450907804457665975e+02 -1.669894587898919099e+03
-2.502150821749235377e+01 -2.450029292637390483e+02 -1.669063122360341822e+03
-2.464448645167107088e+01 -2.452679059231564054e+02 -1.667702610364522343e+03
-2.458454365348612214e+01 -2.453675709285839162e+02 -1.667420197603861652e+03
-2.454421729829304866e+01 -2.453733384766767927e+02 -1.667446466440276026e+03
-2.451636765808264329e+01 -2.454268310054105484e+02 -1.667412686080228923e+03
-2.435444586253663601e+01 -2.456046438289585581e+02 -1.667549799886394794e+03
-2.442490868636069479e+01 -2.456651623768304091e+02 -1.667780007122409870e+03
-2.441430072949432883e+01 -2.457873113415455464e+02 -1.667965241724826683e+03
-2.422960656666246848e+01 -2.461600400625009968e+02 -1.668521189022080080e+03
-2.409032438335142956e+01 -2.464646795585978225e+02 -1.669041685490812142e+03
-2.419997727732892656e+01 -2.465132729165520118e+02 -1.669557998051584036e+03
-2.425437382990601520e+01 -2.465605614775361971e+02 -1.669805834657200194e+03
-2.420884141572220472e+01 -2.466456200185163823e+02 -1.670101544663739560e+03
-2.422491981018235663e+01 -2.469208461113101691e+02 -1.670770370155054934e+03
-2.417345292127046719e+01 -2.471902038601764957e+02 -1.671010253075254923e+03
-2.386399161001742186e+01 -2.479286206822668532e+02 -1.671502122336492221e+03
-2.366124777763427289e+01 -2.481531783780519334e+02 -1.671604463018745719e+03
-2.367871346597398485e+01 -2.482954293575165252e+02 -1.671756501850910581e+03
-2.367351153674043474e+01 -2.485656117542797574e+02 -1.671899550419365596e+03
-2.368347185909578911e+01 -2.485978203758867835e+02 -1.671978465662056806e+03
-2.375180624859686418e+01 -2.490015093652622227e+02 -1.672498297668688338e+03
-2.371346706249994440e+01 -2.490412021381072520e+02 -1.672533888645002207e+03
-2.363670742571301275e+01 -2.491183875131954721e+02 -1.672574540510164979e+03
-2.353215278299030899e+01 -2.491934637204071237e+02 -1.672572609109405903e+03
-2.348883519223045369e+01 -2.496383969997585268e+02 -1.672675695741391110e+03
-2.298266287628376858e+01 -2.502499290376342742e+02 -1.672802578594685201e+03
-2.257253649395097739e+01 -2.506728746341020440e+02 -1.672602317090044380e+03
-2.226515821642531989e+01 -2.510142304669290354e+02 -1.672494778909717752e+03
-2.161638610085744006e+01 -2.515040252182238874e+02 -1.672547624661362534e+03
-2.080069507491536740e+01 -2.520814391306955997e+02 -1.672744986023431693e+03
-2.044474967056585513e+01 -2.522769633802644478e+02 -1.672784494833128065e+03
-2.030444547032018932e+01 -2.523994437784253648e+02 -1.672862840959455752e+03
-2.049709052014389954e+01 -2.522446485315014968e+02 -1.672780617018506064e+03
-1.946418194688006054e+01 -2.526565213886310630e+02 -1.672545879680133112e+03
-1.915952772626555145e+01 -2.528822001662729235e+02 -1.672632401210418948e+03
-1.867344671792372424e+01 -2.531589082999512925e+02 -1.672739952501333391e+03
-1.832089932525924780e+01 -2.533565214661672371e+02 -1.672833468302057554e+03
-1.815398322839621414e+01 -2.533601922031977551e+02 -1.672838132576740463e+03
-1.733842476946087174e+01 -2.538676133253992191e+02 -1.673282583996259291e+03
-1.735589465910203444e+01 -2.538191322126377258e+02 -1.673242219820983564e+03
-1.698340710793955566e+01 -2.539308351674683308e+02 -1.673309614774660076e+03
-1.693450484882356477e+01 -2.539604808831759613e+02 -1.673312763836858494e+03
-1.683271595713064528e+01 -2.540657599399724802e+02 -1.673450851879192214e+03
-1.669728308951761164e+01 -2.542391062821755838e+02 -1.673738965512621235e+03
-1.670961390267832769e+01 -2.542329748515928713e+02 -1.673744209786750389e+03
-1.643694867376544266e+01 -2.544433063886899333e+02 -1.673793962096629912e+03
-1.626994880662174126e+01 -2.545241220253321330e+02 -1.673785098200846733e+03
-1.566357911697735972e+01 -2.547058026625186358e+02 -1.673460287667225430e+03
-1.532333973182510078e+01 -2.546215432302059298e+02 -1.673145838367254100e+03
-1.496345505624600492e+01 -2.546149895178052986e+02 -1.672783270140144168e+03
-1.482559435602938436e+01 -2.546801338220728894e+02 -1.672664013914875795e+03
-1.471535546748954459e+01 -2.545407525398402697e+02 -1.672240142489623622e+03
-1.478615021973915589e+01 -2.544654092656657269e+02 -1.672145301732746475e+03
-1.439724141424967740e+01 -2.534789512152247255e+02 -1.670504632394334976e+03
-1.443388467060060520e+01 -2.535850404014763910e+02 -1.670702986949305341e+03
-1.434226794119909698e+01 -2.535926128118456120e+02 -1.670666290095246495e+03
-1.438704943142896298e+01 -2.535611347410757901e+02 -1.670698333615815727e+03
-1.445511221998735607e+01 -2.535555720650137346e+02 -1.670710912522395802e+03
-1.446032033898050884e+01 -2.535801443510759157e+02 -1.670721902145497324e+03
-1.436447095924461337e+01 -2.536062233950801215e+02 -1.670703743173068688e+03
-1.449426921900914067e+01 -2.535523242294746069e+02 -1.670714832845355431e+03
-1.438679237676710443e+01 -2.536603024118545022e+02 -1.670785331130643272e+03
-1.435167857458635865e+01 -2.538320193506415023e+02 -1.671080483429348760e+03
-1.441071371415247881e+01 -2.538445062076608849e+02 -1.671080311746897678e+03
-1.439289032421970660e+01 -2.537995716670217234e+02 -1.671041066635262496e+03
-1.432479852038848378e+01 -2.539423200059441399e+02 -1.671107473321537100e+03
-1.427159481875169433e+01 -2.542036285186437397e+02 -1.671244024966865936e+03
-1.416938998488275558e+01 -2.546703345927518569e+02 -1.671593826243035892e+03
-1.384932685531846630e+01 -2.553213320468755114e+02 -1.672200158455969586e+03
-1.369768755500211910e+01 -2.554501905325444966e+02 -1.672253945299152065e+03
-1.364405064582948057e+01 -2.555273580315552806e+02 -1.672327168978659984e+03
-1.340234095397308067e+01 -2.558006174429516193e+02 -1.672530261566774243e+03
-1.349219660177774927e+01 -2.559161002012576773e+02 -1.672713961539612683e+03
-1.377210873229361709e+01 -2.560311906672801001e+02 -1.673259152301851600e+03
-1.374950740651381409e+01 -2.562026932164458231e+02 -1.673424932182013208e+03
-1.371981587025699412e+01 -2.563883746696506591e+02 -1.673625044901005140e+03
-1.358166849605794368e+01 -2.565801051965536317e+02 -1.673775599427707675e+03
-1.367762121906437756e+01 -2.565490586352166815e+02 -1.673804918340636050e+03
-1.363599189086221486e+01 -2.565937352204533681e+02 -1.673829366264375267e+03
-1.374152167692818693e+01 -2.565749460728737859e+02 -1.673851499508141615e+03
-1.376088092066106583e+01 -2.566281678956827932e+02 -1.673907920320532867e+03
-1.402207728984173229e+01 -2.566436981901334207e+02 -1.674457468031758253e+03
-1.419681242892278306e+01 -2.566636477960934144e+02 -1.674832764118008072e+03
-1.417888712738810852e+01 -2.566660193150471514e+02 -1.674843768450178459e+03
-1.434298670830706612e+01 -2.565981832736733850e+02 -1.674813849796057184e+03
-1.431537538750485794e+01 -2.566247873151007752e+02 -1.674916205395295947e+03
-1.447523695250247044e+01 -2.567330433318993528e+02 -1.675072009144501862e+03
-1.476496595687579827e+01 -2.565327570024036277e+02 -1.675247608883550811e+03
-1.512211334304832633e+01 -2.560769969037584133e+02 -1.675061920117457021e+03
-1.587950425939276045e+01 -2.553328447300916650e+02 -1.674658228972634106e+03
-1.619868176050439956e+01 -2.548552411253267564e+02 -1.674333454214306812e+03
-1.625646382666758427e+01 -2.548073916578122748e+02 -1.674169677508256655e+03
-1.666138617150869550e+01 -2.541325974156272309e+02 -1.673515511910727355e+03
-1.699819792917251959e+01 -2.538893669943596763e+02 -1.673106692267657081e+03
-1.717995803211520922e+01 -2.535523969953636936e+02 -1.672535628514663586e+03
-1.743849011122026127e+01 -2.532219067958781693e+02 -1.672062941857653641e+03
-1.749385212288622427e+01 -2.530062640848562694e+02 -1.671780447912999534e+03
-1.752360839007515381e+01 -2.528819818297666586e+02 -1.671515560324239004e+03
-1.770200707101672322e+01 -2.525990731054317848e+02 -1.671118590067945888e+03
-1.810089726733531279e+01 -2.520199787641353453e+02 -1.670281486674460666e+03
-1.817640803553491935e+01 -2.519968293338889112e+02 -1.670270959503404811e+03
-1.812476269622632685e+01 -2.520393722417849176e+02 -1.670273972334698783e+03
-1.823462191913897357e+01 -2.519802262378159128e+02 -1.670131489871333997e+03
-1.837867073083832281e+01 -2.519285925120489935e+02 -1.670078579901705780e+03
-1.840316125851337858e+01 -2.518646599896827070e+02 -1.670003332907289405e+03
-1.857738396979696915e+01 -2.518163066044152458e+02 -1.669992199937035139e+03
-1.859518658777386690e+01 -2.518649119721521856e+02 -1.669986920040851146e+03
-1.841107746100664144e+01 -2.519967874981064426e+02 -1.670027098148349296e+03
-1.862926700926456647e+01 -2.518670914078823273e+02 -1.670038704005132786e+03
-1.943603182167547061e+01 -2.518902551102490861e+02 -1.670731372234618902e+03
-1.933367083192491975e+01 -2.519276555054987909e+02 -1.670745878025411685e+03
-1.924326064456417384e+01 -2.520428169045044342e+02 -1.670753021770676696e+03
-1.946556511920512378e+01 -2.518816278716037971e+02 -1.670711383037526730e+03
-1.943183535037088916e+01 -2.518850648453562258e+02 -1.670791303021823751e+03
-1.935756197764654019e+01 -2.519723405624980330e+02 -1.670790974572303412e+03
-2.090137229896433269e+01 -2.515521394556978976e+02 -1.671710323724545333e+03
-2.148143063783626872e+01 -2.512517962224367523e+02 -1.671806798799714443e+03
-2.162908532767993108e+01 -2.510426003868732892e+02 -1.671668067099065183e+03
-2.176077011429742925e+01 -2.509006990705537703e+02 -1.671596600059112689e+03
-2.218877953747156084e+01 -2.501386864209734142e+02 -1.671273233929807020e+03
-2.265748116299660353e+01 -2.495951623349251918e+02 -1.671168333090344731e+03
-2.314035786635341196e+01 -2.485137012855901730e+02 -1.670304069475674623e+03
-2.337723890389354153e+01 -2.479980267129440108e+02 -1.669901781100023527e+03
-2.382083475125126881e+01 -2.470694043655667542e+02 -1.668790158855565096e+03
-2.408131041547548534e+01 -2.463928731142198956e+02 -1.668340271848726616e+03
-2.421809499999899629e+01 -2.458492434059727714e+02 -1.667635754717790633e+03
-2.442150119371214601e+01 -2.456087588827031993e+02 -1.666940026516777380e+03
-2.443335838770781265e+01 -2.455026089687136732e+02 -1.666084936201292066e+03
-2.433281522169836819e+01 -2.455670849496642347e+02 -1.665041087604440463e+03
-2.437657461153487759e+01 -2.454118908747862804e+02 -1.664485853935547539e+03
-2.432303721960082044e+01 -2.454985787820960752e+02 -1.664049056092243063e+03
-2.444352546585460573e+01 -2.454941125790625733e+02 -1.663709654418841637e+03
-2.436177236056495587e+01 -2.455968627524706847e+02 -1.662502528297612798e+03
-2.440789901378943227e+01 -2.456269514986478555e+02 -1.662495620196813661e+03
-2.420572409764228894e+01 -2.461048865453408041e+02 -1.661625377974975891e+03
-2.397081516499231668e+01 -2.465663938303704015e+02 -1.660281214720527259e+03
-2.414346963062403972e+01 -2.466893511601664386e+02 -1.659572901644557533e+03
-2.400350176930137991e+01 -2.468125171486083786e+02 -1.658933655826238919e+03
-2.411720767722130176e+01 -2.468318555185847174e+02 -1.658174138430136281e+03
-2.412777067829078703e+01 -2.468423742051722627e+02 -1.658102445352397808e+03
-2.400322012856578624e+01 -2.470477156783103965e+02 -1.656790146637305270e+03
-2.388858803262385777e+01 -2.471497734117783409e+02 -1.656448228449112094e+03
-2.400716834994895521e+01 -2.472060011678011620e+02 -1.655798300171662959e+03
-2.403683512684230550e+01 -2.474693878536006935e+02 -1.655094307607370638e+03
-2.377238320563286322e+01 -2.476737748546449609e+02 -1.654785601426245421e+03
-2.378499957700962852e+01 -2.478138732506016595e+02 -1.654358820126917408e+03
-2.351000165044101209e+01 -2.481103379537898093e+02 -1.653784934381524863e+03
-2.349640028712481410e+01 -2.483438405339829558e+02 -1.653403559183211655e+03
-2.336090591933371741e+01 -2.485609530913430092e+02 -1.652115537884856849e+03
-2.314798022418843004e+01 -2.487408981152764227e+02 -1.651958749072209457e+03
-2.321974361040119561e+01 -2.487380711065609091e+02 -1.651725136043411112e+03
-2.318881440071132261e+01 -2.487677453117966593e+02 -1.651364409612473082e+03
-2.348616373682430947e+01 -2.483621751374382995e+02 -1.650171216281949000e+03
-2.342062860138861424e+01 -2.483916638730210593e+02 -1.649998925578741819e+03
-2.355873228260490748e+01 -2.482305696954399536e+02 -1.649845881047580406e+03
-2.368720826585263239e+01 -2.480162129101874484e+02 -1.649650505957941505e+03
-2.376134064460769935e+01 -2.477626690803893723e+02 -1.649309156360705174e+03
-2.403965705195379599e+01 -2.473414152534282380e+02 -1.648722524386143277e+03
-2.412369154204552046e+01 -2.469766107951863887e+02 -1.648460889796173205e+03
-2.426516373998121878e+01 -2.465791812107678993e+02 -1.648161690968275025e+03
-2.426957116219554678e+01 -2.465208229974340668e+02 -1.648159147571190488e+03
-2.438164796493086328e+01 -2.464673285074796070e+02 -1.648034383209048428e+03
-2.449202269866484016e+01 -2.461848633588406869e+02 -1.647829603212815755e+03
-2.449140183336169230e+01 -2.458553842931548274e+02 -1.647202504762476565e+03
-2.409073989704783969e+01 -2.449938588294666886e+02 -1.645905667023123669e+03
-2.286418173139458077e+01 -2.440331630018912108e+02 -1.644822696271064160e+03
-2.288083555845230421e+01 -2.439894121624163290e+02 -1.644851960788294718e+03
-2.285316655129217622e+01 -2.440072248027126989e+02 -1.644861611222293732e+03
-2.292573773311349328e+01 -2.440201306331270530e+02 -1.644836965838534525e+03
-2.280875140738997686e+01 -2.440698055688586123e+02 -1.644834789765788628e+03
-2.292790602302643777e+01 -2.439642570065959717e+02 -1.644814730419408988e+03
-2.294828302108879825e+01 -2.439463539062415691e+02 -1.644818426134766696e+03
-2.300409582600266845e+01 -2.438491376890574145e+02 -1.644626271933646422e+03
-2.304156400874839505e+01 -2.430498745688085194e+02 -1.644069366625665225e+03
-2.310664954190200149e+01 -2.428109373519460519e+02 -1.643996339268507427e+03
-2.304015567648673368e+01 -2.426809212272990521e+02 -1.643861263902767632e+03
-2.296585139020847066e+01 -2.425456781801472346e+02 -1.643711031690412938e+03
-2.297300700829308084e+01 -2.425289761347896444e+02 -1.643673965535853768e+03
-2.263855196132253411e+01 -2.426450806464418690e+02 -1.643571472921155419e+03
-2.195749682875292308e+01 -2.430567576044572320e+02 -1.643363891698962789e+03
-2.190229005417272390e+01 -2.430735875471941085e+02 -1.643258288924069348e+03
-2.022713186806284114e+01 -2.435483568525387739e+02 -1.642691961536919507e+03
-2.032216969295255637e+01 -2.437274885788710890e+02 -1.642893078864624613e+03
-2.038837706088553148e+01 -2.437552150279597640e+02 -1.642947469312889325e+03
-2.034012634340440684e+01 -2.438320044120892476e+02 -1.642981016896962046e+03
-2.039977051077083559e+01 -2.440767644833446752e+02 -1.643109213727030237e+03
-2.041562688806151016e+01 -2.443763993106741452e+02 -1.643257459134761802e+03
-2.040175394391660291e+01 -2.447326431636135737e+02 -1.643529867105356971e+03
-2.045568516859299280e+01 -2.449992957730718786e+02 -1.643813460234957120e+03
-2.050248728045259838e+01 -2.450427248725811467e+02 -1.643789152364180154e+03
-2.052893858276517847e+01 -2.450497577398531917e+02 -1.643785894219051215e+03
-2.046241363408830694e+01 -2.451044212902051811e+02 -1.643819813498712847e+03
-2.048767927527258337e+01 -2.451735900458280639e+02 -1.643798722304590456e+03
-2.047741164770553723e+01 -2.451638157676428023e+02 -1.643813490531520074e+03
-2.106505683433222487e+01 -2.457009068886810041e+02 -1.644046601916836835e+03
-2.113485108290340975e+01 -2.471397625526401782e+02 -1.645040350266913492e+03
-2.131461450019220649e+01 -2.477462580526953957e+02 -1.646480960166786417e+03
-2.132954770096563379e+01 -2.477099186514693656e+02 -1.646346496068139913e+03
-2.114135525912246294e+01 -2.479351341870929843e+02 -1.646376520076012866e+03
-2.105450870072949954e+01 -2.480557049539887373e+02 -1.646316351697916843e+03
-2.096895149879088649e+01 -2.483932408451674689e+02 -1.646245261359496226e+03
-2.088446762565520487e+01 -2.486675070029836263e+02 -1.646114275618493139e+03
-2.073081915205048631e+01 -2.488104033017818608e+02 -1.645777393660244570e+03
-2.059706240003454525e+01 -2.490083742695420312e+02 -1.645569890107283982e+03
-2.031297967972355423e+01 -2.492777189614267854e+02 -1.645017545089090390e+03
-2.017411326792766602e+01 -2.494730811385446145e+02 -1.644871104704862091e+03
-1.997637832917186529e+01 -2.496375344278622208e+02 -1.644548041099829561e+03
-1.970992718127718035e+01 -2.496226122655153290e+02 -1.644140834648952477e+03
-1.958563113663765876e+01 -2.497025864301060381e+02 -1.643687809398482614e+03
-1.915986131638881318e+01 -2.499139030500224692e+02 -1.643319334743594482e+03
-1.888917061035901668e+01 -2.498742596267895237e+02 -1.642727927732709986e+03
-1.888751158599390578e+01 -2.497605476822723176e+02 -1.642577394148872372e+03
-1.854878309798270664e+01 -2.493812331888156280e+02 -1.642066932893422745e+03
-1.824236707886119291e+01 -2.489769035777380282e+02 -1.641622119148774118e+03
-1.804102255031124002e+01 -2.488870786234126626e+02 -1.641606154764201165e+03
-1.778292494063481399e+01 -2.483080751764431682e+02 -1.641022462743921778e+03
-1.765683597277785566e+01 -2.481417317146135417e+02 -1.640829506416261893e+03
-1.722278819353670087e+01 -2.475889230345997589e+02 -1.640476588816449066e+03
-1.723273901989399803e+01 -2.472190205997183909e+02 -1.640232392630955474e+03
-1.720502556908408565e+01 -2.470034956541753388e+02 -1.640086241753928334e+03
-1.706100019353111463e+01 -2.466925902126538404e+02 -1.639784809140011930e+03
-1.682341349440181943e+01 -2.463592133661812227e+02 -1.639355642243263446e+03
-1.673442404892567481e+01 -2.460423565730384325e+02 -1.638942506520862025e+03
-1.652231427597845936e+01 -2.455836377524254601e+02 -1.638360080025768184e+03
-1.630876085881826043e+01 -2.453059548461299926e+02 -1.637852803704714006e+03
-1.604958616337309252e+01 -2.451559376846015539e+02 -1.637541730277934903e+03
-1.579682220504517431e+01 -2.445075283655101543e+02 -1.636438707056691328e+03
-1.561989787723166501e+01 -2.444253330699988851e+02 -1.636150679910665758e+03
-1.529038859716946774e+01 -2.441931207253831531e+02 -1.635326737150749750e+03
-1.527957496743607635e+01 -2.441604921996002702e+02 -1.635181742809838852e+03
-1.511090574408713394e+01 -2.442205947503907169e+02 -1.634883202527730418e+03
-1.476213160176868655e+01 -2.444067850673436055e+02 -1.634082952395340271e+03
-1.453123459071407808e+01 -2.445773780678233891e+02 -1.633491341938588903e+03
-1.439427277807438088e+01 -2.447604147703062551e+02 -1.633364189110663801e+03
-1.426760509224914131e+01 -2.450634553221874512e+02 -1.633442667991126427e+03
-1.413095277844584530e+01 -2.454851270419443097e+02 -1.633500436100804791e+03
-1.420129450990275188e+01 -2.459720018654139153e+02 -1.633877296911926805e+03
-1.461262743801887609e+01 -2.463195765633658425e+02 -1.634690729973255202e+03
-1.493633771346246419e+01 -2.468069301541777918e+02 -1.635530340354131567e+03
-1.514074723020995350e+01 -2.474090851413772327e+02 -1.636523522637228098e+03
-1.518663449822754785e+01 -2.478117989970641304e+02 -1.636762374659406532e+03
-1.515057309855090750e+01 -2.484340205817178742e+02 -1.636891114416528126e+03
-1.531553919192700164e+01 -2.488778807164927400e+02 -1.637067801595070705e+03
-1.519879262692724353e+01 -2.496680494402211252e+02 -1.637136376382550679e+03
-1.533561742296444663e+01 -2.501324583630654672e+02 -1.637177664392725319e+03
-1.511727293058828536e+01 -2.506323885442000687e+02 -1.637174319921555934e+03
-1.530086547749182557e+01 -2.507782748493601161e+02 -1.637091344871268575e+03
-1.514570313850468608e+01 -2.509061409226247576e+02 -1.637052686209836111e+03
-1.503667994732340674e+01 -2.509814968146665137e+02 -1.636849114018401679e+03
-1.497882521268590494e+01 -2.511171554025781631e+02 -1.636519227181122915e+03
-1.476137360632091600e+01 -2.515500910734103286e+02 -1.635919313513036286e+03
-1.479100789555506879e+01 -2.519993493489952812e+02 -1.635562265236253097e+03
-1.467950796306342909e+01 -2.523614421016887945e+02 -1.635326029272155665e+03
-1.444630953910848348e+01 -2.531312456044308021e+02 -1.635018554590295935e+03
-1.460728231121382237e+01 -2.532524604894486799e+02 -1.635207152606755244e+03
-1.483173188104420603e+01 -2.538319828227596986e+02 -1.635565555763049360e+03
-1.475419535784904213e+01 -2.540873778283068418e+02 -1.635598446879031144e+03
-1.491210767678954596e+01 -2.543404084915230214e+02 -1.635556391194073285e+03
-1.484110848883530309e+01 -2.548913353555396100e+02 -1.635185320943178112e+03
-1.455283283878621603e+01 -2.551174412636470379e+02 -1.634622828173018661e+03
-1.451756101429765522e+01 -2.551600912702547532e+02 -1.634456423378902855e+03
-1.437064043681507997e+01 -2.552071555541277803e+02 -1.634241860895908530e+03
-1.401411215311186709e+01 -2.551088289420724493e+02 -1.633657295160618560e+03
-1.338397489543433494e+01 -2.548509233257340441e+02 -1.632597193431883397e+03
-1.319316549557225926e+01 -2.545381854159719239e+02 -1.632319101889859667e+03
-1.282741232980093571e+01 -2.540046288470418858e+02 -1.631920097017624130e+03
-1.276291548186526370e+01 -2.537041639553368100e+02 -1.631619160677909576e+03
-1.259493797756709910e+01 -2.536141577331721351e+02 -1.631558200465859500e+03
-1.220900394243159326e+01 -2.531600677081193282e+02 -1.630733050499987257e+03
-1.193196483373280614e+01 -2.529935617766511200e+02 -1.630394646463025992e+03
-1.178953363290442269e+01 -2.525833601550054937e+02 -1.630073594561329855e+03
-1.172420182346478157e+01 -2.520644530126317022e+02 -1.629753013208444145e+03
-1.152959642777842930e+01 -2.519480340062003449e+02 -1.629618070421054654e+03
-1.106775882140179590e+01 -2.515879649219793350e+02 -1.629012241604212704e+03
-1.013842950550942135e+01 -2.512765165790289075e+02 -1.628054413268598637e+03
-9.890620159097096575e+00 -2.511186318483914874e+02 -1.627779447030462961e+03
-9.812829830346316839e+00 -2.508459937987265675e+02 -1.627635964720944003e+03
-9.721017319716679594e+00 -2.507063943883476043e+02 -1.627562193913667898e+03
-9.790849335966797184e+00 -2.504242843228526283e+02 -1.627405579532592583e+03
-9.733917005425837488e+00 -2.502915395894634685e+02 -1.627274692130204812e+03
-9.677771216338015847e+00 -2.498499825650725086e+02 -1.627021478124323494e+03
-9.345532276177905828e+00 -2.493282713001582351e+02 -1.626453052216987089e+03
-9.164262016210059869e+00 -2.493092950475850103e+02 -1.626418706702017062e+03
-9.203255116178723938e+00 -2.489383007437531035e+02 -1.626066087265047145e+03
-8.742006472039079767e+00 -2.489269644365158172e+02 -1.625721289385929367e+03
-8.567325333344356864e+00 -2.489386507993220334e+02 -1.625585845230291852e+03
-8.135997645830073566e+00 -2.490160675156080288e+02 -1.625397581646471963e+03
-7.975930183057158729e+00 -2.491663682342040715e+02 -1.625396791422680280e+03
-6.952399140561055901e+00 -2.494522634867890361e+02 -1.625503058569772747e+03
-6.989274742733627477e+00 -2.494512197793079338e+02 -1.625580037388940582e+03
-7.003069565371390581e+00 -2.496078915068001436e+02 -1.625652129980775726e+03
-7.117765570594855262e+00 -2.499057724599495032e+02 -1.625964678277048733e+03
-7.242414535084890304e+00 -2.499598511996665025e+02 -1.626038733333853315e+03
-7.028589427672287115e+00 -2.502829296069390637e+02 -1.626272569560573174e+03
-7.155966235849930968e+00 -2.503340196013651564e+02 -1.626257372522211426e+03
-7.331541996531470318e+00 -2.505134283041976744e+02 -1.626416843995775253e+03
-7.405795810345878749e+00 -2.510103658939005982e+02 -1.626639292902026682e+03
-7.205316145419345730e+00 -2.515556179226011579e+02 -1.626986144344218701e+03
-7.382363903008737793e+00 -2.517566405708281820e+02 -1.627062383304268906e+03
-7.502313741628128696e+00 -2.522303990614421707e+02 -1.627276997273801271e+03
-7.504931719506018339e+00 -2.526473939150025103e+02 -1.627376749746762471e+03
-7.495830397551145552e+00 -2.529461893207808316e+02 -1.627492410231670874e+03
-7.383409745163874049e+00 -2.535689691621810198e+02 -1.627710553276507653e+03
-7.686648858451405886e+00 -2.539185355291604651e+02 -1.627831808687266857e+03
-7.717673181391845105e+00 -2.542024152372351011e+02 -1.627886454227635568e+03
-7.702310439307950674e+00 -2.544472082265504298e+02 -1.628058626893554447e+03
-7.720740886417075899e+00 -2.544582499414868551e+02 -1.628049011288585234e+03
-7.686976178283146055e+00 -2.547208751982535375e+02 -1.628089857512047047e+03
-8.153810447886826296e+00 -2.551332381542784162e+02 -1.628127595375180363e+03
-1.038522591127737371e+01 -2.555853633993125413e+02 -1.629150949212945079e+03
-1.130149545822550294e+01 -2.554605106946044089e+02 -1.629879090314066843e+03
-1.129618983803371179e+01 -2.555146407299390887e+02 -1.629920351629665674e+03
-1.131960950360813456e+01 -2.556388519967942443e+02 -1.629948797007680241e+03
-1.167218102822147330e+01 -2.558060594416875233e+02 -1.630225621847577258e+03
-1.213694150033398955e+01 -2.558144060327553859e+02 -1.630781018294778505e+03
-1.227204092096552301e+01 -2.562353692290263893e+02 -1.630991952957618423e+03
-1.233460703495633481e+01 -2.565172418301825701e+02 -1.631123684850235350e+03
-1.182034510802169791e+01 -2.569695870868279144e+02 -1.630854689923505020e+03
-1.188719483828121781e+01 -2.571908357067238740e+02 -1.630916230716385598e+03
-1.176009059639285681e+01 -2.575394322267925986e+02 -1.630891806368251537e+03
-1.115042781320283893e+01 -2.579328271471921425e+02 -1.630806369122667093e+03
-1.092727279685699671e+01 -2.580446291898817890e+02 -1.630655905312880577e+03
-1.065875768663204326e+01 -2.581862249321974332e+02 -1.630614440328752380e+03
-1.062209822566200046e+01 -2.581892003986076247e+02 -1.630641789042123946e+03
-1.053228879125309447e+01 -2.582263005430397129e+02 -1.630600015280668686e+03
-1.056451545131858438e+01 -2.581405627941090870e+02 -1.630508201503462715e+03
-1.041312749145060934e+01 -2.581966132477775204e+02 -1.630415209339905459e+03
-1.034650286186554524e+01 -2.582133509757577485e+02 -1.630344202847788893e+03
-9.349575672708155594e+00 -2.584786136139363180e+02 -1.630104025464706410e+03
-8.764669790472083832e+00 -2.586450034460862071e+02 -1.630138851177214519e+03
-8.589447189193080590e+00 -2.587274714400030007e+02 -1.630146407237377616e+03
-7.725567647361060608e+00 -2.586021578563789944e+02 -1.630173585503740242e+03
-7.682072874728746115e+00 -2.586359654395564576e+02 -1.630213205971921980e+03
-7.713997468555433557e+00 -2.585819812097067256e+02 -1.630176527132383626e+03
-7.754980861090103872e+00 -2.585321020746404201e+02 -1.630110226805866205e+03
-7.600486128135003128e+00 -2.585628367398235241e+02 -1.630110235293791447e+03
-7.532487501095289417e+00 -2.583910979492793558e+02 -1.629963854388838854e+03
-7.110665133334606480e+00 -2.580654082257119626e+02 -1.629688740346587338e+03
-6.218029717068404238e+00 -2.576805308083006594e+02 -1.629699931072506615e+03
-4.048004366667569798e+00 -2.570872939322579214e+02 -1.630495323660627037e+03
-3.387305209421640484e+00 -2.565155397245869722e+02 -1.631164412446114966e+03
-3.215745282109637060e+00 -2.565240528018553618e+02 -1.631211402542706765e+03
-3.330213840515526158e+00 -2.563520350130829684e+02 -1.631218289244435482e+03
-3.301539843197772939e+00 -2.562350275262357400e+02 -1.631198025816975587e+03
-3.416682603193379464e+00 -2.560717289734283213e+02 -1.631208874465970439e+03
-3.229194914111403136e+00 -2.560001968258704892e+02 -1.631170935313509290e+03
-3.302989577713390190e+00 -2.558124223594431896e+02 -1.631103237428151033e+03
-3.261049156517003667e+00 -2.555616273468268389e+02 -1.631063719359062816e+03
-3.123913479925704451e+00 -2.553930905231300130e+02 -1.630925164940017112e+03
-3.036682441081879347e+00 -2.551960857592011678e+02 -1.630985839597756922e+03
-3.157438197961567994e+00 -2.548399597097754281e+02 -1.630817778778193542e+03
-3.063465724498577458e+00 -2.546260603175228141e+02 -1.630632998484026984e+03
-3.237953986385846861e+00 -2.544030840587683713e+02 -1.630294354681392633e+03
-3.218365083396264481e+00 -2.540357287752429443e+02 -1.630052098998641895e+03
-3.111976944520463917e+00 -2.537330809576981778e+02 -1.630035871883254003e+03
-3.000324687013481650e+00 -2.531247214392457749e+02 -1.630040314606205129e+03
-3.178558833356305513e+00 -2.528966685017029477e+02 -1.629724193225538102e+03
-3.407351388285661642e+00 -2.525671964275459231e+02 -1.629519859461294573e+03
-3.300440612724642619e+00 -2.522211288636953270e+02 -1.629322552914156631e+03
-3.467198515016761462e+00 -2.520226483147882561e+02 -1.629095379911004557e+03
-3.485491941116137582e+00 -2.517642380295833959e+02 -1.628834420886447106e+03
-3.633255419150046350e+00 -2.515368509806850739e+02 -1.628739674985032934e+03
-3.442789543529769958e+00 -2.512203029101397078e+02 -1.628618407226581212e+03
-3.575859629791509064e+00 -2.507298763220771605e+02 -1.628471437628810236e+03
-3.464557439412885742e+00 -2.505083770891648101e+02 -1.628321012637608419e+03
-3.619639466302587039e+00 -2.501318356824093314e+02 -1.628085539020220722e+03
-3.448828681102455107e+00 -2.499279792725280913e+02 -1.628059735037742712e+03
-3.454011515687284373e+00 -2.496046358641118843e+02 -1.627912315330213914e+03
-3.415559449189984775e+00 -2.493692914824579532e+02 -1.627755340104111383e+03
-3.536626448611826845e+00 -2.485319321131782146e+02 -1.627284683244511143e+03
-3.331434647210812727e+00 -2.483165049106150946e+02 -1.627237144507555968e+03
-3.263145413455319499e+00 -2.477884362436688548e+02 -1.626963831241361731e+03
-3.167024983561020690e+00 -2.475821186705600496e+02 -1.626875504469670659e+03
-3.243525020182630669e+00 -2.471792955176278213e+02 -1.626677729056654016e+03
-3.166222806817955870e+00 -2.468757555557788521e+02 -1.626519499269205880e+03
-3.235339095692353339e+00 -2.468115995096248696e+02 -1.626375624346801715e+03
-3.226856703700960338e+00 -2.464232850380927857e+02 -1.626213456395778167e+03
-3.131129398729356694e+00 -2.460961431453536363e+02 -1.625924972148544839e+03
-2.854671698254826140e+00 -2.457051380288531846e+02 -1.626163638410373551e+03
-2.736967570397247584e+00 -2.452148301937145618e+02 -1.626224723556437084e+03
-2.496744543254322934e+00 -2.452179857068026365e+02 -1.626285687134078216e+03
-2.533560016786680080e+00 -2.450246604636240022e+02 -1.626211452831254292e+03
-2.506325886114304069e+00 -2.449068307797006980e+02 -1.625921111912852894e+03
-2.454873131716986734e+00 -2.449783101220894252e+02 -1.625839699524787420e+03
-2.456460427341681907e+00 -2.449094043736881190e+02 -1.625224929289606735e+03
-2.437117071651350386e+00 -2.450077439768641341e+02 -1.625123247246210212e+03
-2.456267462539521773e+00 -2.451437913065137764e+02 -1.624380067534021464e+03
-2.445455033475994355e+00 -2.451189572487368480e+02 -1.624256185756589275e+03
-2.358161855479416147e+00 -2.451729829461801557e+02 -1.623906637490274079e+03
-2.207932113785211925e+00 -2.451320981138223942e+02 -1.623481883255590901e+03
-2.197914755183234092e+00 -2.450634199392848132e+02 -1.622891231429841810e+03
-2.165032876560346153e+00 -2.449850733608971893e+02 -1.622578453935650714e+03
-2.091108693632662607e+00 -2.450556186609078111e+02 -1.622306837634289195e+03
-1.769992659910791133e+00 -2.450547823172832693e+02 -1.622090565349951476e+03
-1.728464127517078452e+00 -2.452292542058349909e+02 -1.621613581660213413e+03
-1.607515783165673895e+00 -2.452769398505843412e+02 -1.621566521686460192e+03
-1.596038327076485075e+00 -2.453378471700299599e+02 -1.621391103490065916e+03
-1.495711027439114105e+00 -2.454869214015171224e+02 -1.621305609005554970e+03
-1.493707378135347597e+00 -2.458058026967764818e+02 -1.620965716940442917e+03
-1.498322237340133256e+00 -2.458828644168979736e+02 -1.620903743205436058e+03
-1.122599063706871902e+00 -2.462572103755582020e+02 -1.620459683136081139e+03
-2.425959232475136673e-01 -2.466355384736025371e+02 -1.619954162025032701e+03
-3.597970519275150991e-02 -2.467291967537727544e+02 -1.619533259754280607e+03
-1.131924946136138033e-01 -2.466768076053417929e+02 -1.619437825408158915e+03
2.172315221860827705e-01 -2.468538409676321521e+02 -1.619267443594649649e+03
9.255906907232116509e-01 -2.470176595863239868e+02 -1.618398258627415316e+03
1.284256233041539019e+00 -2.471586219766981571e+02 -1.618082244625104522e+03
1.363094436122707975e+00 -2.474378434167593070e+02 -1.617639196840087607e+03
1.468363223710561272e+00 -2.475106320966659155e+02 -1.617409917247543262e+03
1.412028057342084253e+00 -2.477851337683385111e+02 -1.616735876644732798e+03
1.754742950900350706e+00 -2.477855661403786769e+02 -1.615632160229104784e+03
1.828805083589237768e+00 -2.478672552485732581e+02 -1.615625483863010459e+03
1.684836374939678194e+00 -2.481202433936477121e+02 -1.615209327059328416e+03
1.375006663219743075e+00 -2.484211622319289461e+02 -1.614276533786407299e+03
8.007422397203143305e-01 -2.486095361624074656e+02 -1.613383989281085860e+03
3.059550276685172321e-01 -2.488588608166849951e+02 -1.612649384916592908e+03
-2.687910190843965097e-01 -2.489208382848683527e+02 -1.612123746804185657e+03
-4.036929745341950593e-01 -2.489932212580868054e+02 -1.612161896560718105e+03
-7.994340398529047320e-01 -2.489611431845711138e+02 -1.612214199383608275e+03
-1.393746565474003773e+00 -2.489244460326591195e+02 -1.612201182061787677e+03
-2.254763835804546090e+00 -2.489389156470386126e+02 -1.612089357717856956e+03
-3.363055976553610549e+00 -2.487586445777328663e+02 -1.612153512394599375e+03
-4.256821284679588757e+00 -2.485517226873842560e+02 -1.611961459196098076e+03
-4.383538644867456924e+00 -2.485248337554821774e+02 -1.611981616282221239e+03
-4.317088657217880154e+00 -2.484951061740065654e+02 -1.611976571214439900e+03
-4.347569123817052628e+00 -2.485421831644148369e+02 -1.612032390394446566e+03
-5.352830873936895273e+00 -2.483752422184029740e+02 -1.612119545633735243e+03
-5.575525525226012746e+00 -2.483632567757923653e+02 -1.612142554205246142e+03
-5.665550865160938088e+00 -2.483422452788481678e+02 -1.612145045695442377e+03
-5.537843802096432455e+00 -2.484235853692999569e+02 -1.612132580845865505e+03
-5.701067655477430662e+00 -2.483618427466864773e+02 -1.612110995500866466e+03
-6.129850265027201317e+00 -2.482662180106922563e+02 -1.612189257941703318e+03
-6.171052738508365110e+00 -2.482754555233764222e+02 -1.612186273258645315e+03
-6.374847011876283887e+00 -2.482195978820235212e+02 -1.612153822373205685e+03
-6.521906428324541594e+00 -2.482574821051363188e+02 -1.612193297615124038e+03
-7.141255217988387471e+00 -2.482334001733364346e+02 -1.612147245498770644e+03
-7.717993607220662966e+00 -2.481781325760411789e+02 -1.612063307103593388e+03
-8.693089144194857454e+00 -2.481311153292372182e+02 -1.611888211300429475e+03
-9.099087939619835197e+00 -2.480940388188117538e+02 -1.611740127628760092e+03
-9.793935858742884193e+00 -2.480285574246483122e+02 -1.611719459882863248e+03
-1.026942859877065928e+01 -2.479743230871208368e+02 -1.611663617403903118e+03
-1.019000323294494592e+01 -2.479865503455677072e+02 -1.611631777114504303e+03
-1.148202031834077275e+01 -2.478478613699880100e+02 -1.611795262678713243e+03
-1.341158234446011477e+01 -2.472873194955778899e+02 -1.611958480950763942e+03
-1.354097754256707731e+01 -2.472587561424485898e+02 -1.612103501280372711e+03
-1.361322231195956078e+01 -2.472276877908734889e+02 -1.612133923139769195e+03
-1.366141277141377941e+01 -2.472345345284032021e+02 -1.612129064440565571e+03
-1.355118295323855193e+01 -2.472854426632177365e+02 -1.612186019742087183e+03
-1.358977242556440501e+01 -2.472614209040191326e+02 -1.612298984699414177e+03
-1.440702654464320176e+01 -2.466603959030867372e+02 -1.613988261455229576e+03
-1.444368772641273324e+01 -2.463011559325290136e+02 -1.615161790658679365e+03
-1.454408842266944646e+01 -2.462090814883938208e+02 -1.615146904655533490e+03
-1.446159712891298454e+01 -2.461734551953102823e+02 -1.615405076490242664e+03
-1.461613708778918408e+01 -2.459215608212988968e+02 -1.616038191529425148e+03
-1.472635199816691909e+01 -2.453860114001552120e+02 -1.617172861240426982e+03
-1.479563758540622587e+01 -2.451724547780166859e+02 -1.617351078659609129e+03
-1.514585136086003558e+01 -2.448988374133741956e+02 -1.617716025313463433e+03
-1.582133524947350622e+01 -2.439595844618004605e+02 -1.618562710362841926e+03
-1.590479468156135567e+01 -2.438974357737679952e+02 -1.618535578898182393e+03
-1.614769419473363143e+01 -2.435021616070634423e+02 -1.619152334282230413e+03
-1.555028705955781732e+01 -2.413114941376114473e+02 -1.622485293786403872e+03
-1.552378983362740428e+01 -2.411622961394163269e+02 -1.622761127890805255e+03
-1.556548219946557765e+01 -2.410766138571590886e+02 -1.622866697409095423e+03
-1.574831260991737736e+01 -2.409449154137909375e+02 -1.622893334031581162e+03
-1.567414082641349182e+01 -2.407520364929682444e+02 -1.623110330790574608e+03
-1.597394267616367358e+01 -2.399669603411817889e+02 -1.624400596958911137e+03
-1.591420166859577989e+01 -2.396997305500075015e+02 -1.624611002392949104e+03
-1.599609431954516481e+01 -2.396988077736110085e+02 -1.624643383535208386e+03
-1.593953992171967116e+01 -2.396538150075895715e+02 -1.624585426982507215e+03
-1.611117532236288241e+01 -2.396664470200865935e+02 -1.624414551886217623e+03
-1.669183414862682469e+01 -2.395421381280521871e+02 -1.623258697469816070e+03
-1.692020895708937189e+01 -2.396902782013940794e+02 -1.622655351184000438e+03
-1.715442036746171084e+01 -2.398870659357975796e+02 -1.622083653561408710e+03
-1.706588901989321982e+01 -2.401126141225015260e+02 -1.621846553112846095e+03
-1.739579502881242945e+01 -2.403001034579228019e+02 -1.621269984375115200e+03
-1.742104851432488033e+01 -2.405174091934381977e+02 -1.621086285256854126e+03
-1.755072085943820070e+01 -2.406929526095992173e+02 -1.620789739779273305e+03
-1.760632747653906449e+01 -2.408771434369184021e+02 -1.620530142837295671e+03
-1.752799089211870864e+01 -2.411584905192147517e+02 -1.620423253087262538e+03
-1.774674077785967086e+01 -2.415596554739810813e+02 -1.619867465632390349e+03
-1.836004110052404315e+01 -2.420981667738094814e+02 -1.618708005707828306e+03
-1.877526283909944027e+01 -2.423010248029152933e+02 -1.618271752325369107e+03
-1.875981457386390616e+01 -2.425830980909632046e+02 -1.617775622591752153e+03
-1.885161006929348559e+01 -2.428387206297711032e+02 -1.617370002007684661e+03
-1.901079417975753927e+01 -2.429330798985982369e+02 -1.617138963291208938e+03
-1.941845908472679127e+01 -2.432193605891903019e+02 -1.616323686057748773e+03
-1.949395359544290329e+01 -2.433063887134532592e+02 -1.616236791609506099e+03
-1.970638695667238949e+01 -2.432343403086388776e+02 -1.616077736288906863e+03
-1.991559419995556368e+01 -2.437289639452360461e+02 -1.615449242707288022e+03
-2.007224944522718602e+01 -2.440441124771874968e+02 -1.614762403294662818e+03
-1.951602876047581958e+01 -2.447187593546108246e+02 -1.613770679065455624e+03
-1.947462449951510166e+01 -2.448354513582028176e+02 -1.613400017529503202e+03
-1.884619782356793394e+01 -2.452330578435741018e+02 -1.612997003414922574e+03
-1.834238088642123898e+01 -2.456220070964647562e+02 -1.612574771017802050e+03
-1.817929930993409471e+01 -2.457478690058971722e+02 -1.612099080290689699e+03
-1.770882975876669718e+01 -2.459505120292863580e+02 -1.611959156143009295e+03
-1.719624279011658530e+01 -2.460520299885672273e+02 -1.612195941434646784e+03
-1.646396385408296226e+01 -2.463342001577931910e+02 -1.612466210239412703e+03
-1.483561161431745745e+01 -2.468439711934760226e+02 -1.611987695585322626e+03
-1.449544877310771085e+01 -2.470008019221429265e+02 -1.612088246981363000e+03
-1.280880164815332023e+01 -2.475364291150974054e+02 -1.611965326066625948e+03
-1.231262077836841229e+01 -2.476582617264716646e+02 -1.611755772581270548e+03
-1.138980137176098140e+01 -2.479280776031397693e+02 -1.611596984800281007e+03
-1.053876962790828031e+01 -2.479597895312887772e+02 -1.611320671186046866e+03
-1.014451667406984825e+01 -2.480697436519039911e+02 -1.611356713110653118e+03
-9.114777882377566698e+00 -2.481739919349308252e+02 -1.611307692886638279e+03
-7.901015619581102101e+00 -2.482578320436062995e+02 -1.611183479645339730e+03
-7.795765841085454895e+00 -2.482043621710361663e+02 -1.611092933308655574e+03
-6.605967745079240672e+00 -2.483553773470085844e+02 -1.611183239457333002e+03
-6.005028645203211113e+00 -2.483639693866676339e+02 -1.611198449992235510e+03
-6.048554388050732200e+00 -2.483307852565388316e+02 -1.611210789678873198e+03
-5.932167269107736729e+00 -2.483657056164271353e+02 -1.611225830081937147e+03
-4.383415497571391484e+00 -2.485766807368611921e+02 -1.611237622560222235e+03
-4.209969794251762210e+00 -2.485744579592748948e+02 -1.611174685043162526e+03
