-2.870993557653204675e+01 -1.133544281073475446e+01 2.218291433684817093e+01
-2.839938653937848301e+01 -1.189913522393767664e+01 2.173214103831969624e+01
-2.813274203777146454e+01 -1.254695308655188057e+01 2.161916655840559542e+01
-2.795849769980510757e+01 -1.290530162863547048e+01 2.145271249152278870e+01
-2.776837122697114069e+01 -1.332299120288740113e+01 2.132361380744146118e+01
-2.765486194992904245e+01 -1.357023451795421920e+01 2.131811060244535838e+01
-2.735865676443735595e+01 -1.400513584940595280e+01 2.118651823413620150e+01
-2.692109603343286039e+01 -1.454493328563696508e+01 2.102996248391923473e+01
-2.647509770291060249e+01 -1.488827036556333638e+01 2.077586641137304468e+01
-2.593639371326510457e+01 -1.554763019463954521e+01 2.049680554333349392e+01
-2.576489312932447717e+01 -1.580829864807881080e+01 2.050945542640374697e+01
-2.557109250326404037e+01 -1.615926438660977027e+01 2.044777974923340480e+01
-2.536983422448079750e+01 -1.646476549327375238e+01 2.043008844018709169e+01
-2.488793706918198723e+01 -1.688606657871822136e+01 2.015417581890983456e+01
-2.432329990344624093e+01 -1.716098882452914864e+01 1.998032257926297461e+01
-2.412227761531812575e+01 -1.726656951749664870e+01 1.988341873891340583e+01
-2.398410940749307940e+01 -1.732865747522907895e+01 1.986852375078706245e+01
-2.371597875237546305e+01 -1.741929833612817191e+01 1.977340505056827169e+01
-2.331158235679096435e+01 -1.756448597012744983e+01 1.956219889551653068e+01
-2.294820489288318299e+01 -1.780388557685451190e+01 1.950907464644365064e+01
-2.245398819637200916e+01 -1.806201371008395284e+01 1.935844611052038999e+01
-2.204421961771518568e+01 -1.813245130048751719e+01 1.911646123845594047e+01
-2.166971251881264493e+01 -1.824970842459812559e+01 1.899279031025093900e+01
-2.136159561823569675e+01 -1.844533425865379428e+01 1.881032524252304938e+01
-2.116841210970565612e+01 -1.859046699668164848e+01 1.884554566997121583e+01
-2.095468790522686220e+01 -1.885557280210883846e+01 1.883875343803038049e+01
-2.073645604338973669e+01 -1.901629491283490125e+01 1.882864253069396909e+01
-2.042683311097425758e+01 -1.914237022278376088e+01 1.863732269695128707e+01
-2.020902550339323511e+01 -1.924240538031176584e+01 1.855918544502856093e+01
-1.998869882992634928e+01 -1.937133320795376790e+01 1.852667530435337540e+01
-1.995244207956675098e+01 -1.940041317595787262e+01 1.853560521438816977e+01
-1.991844650294585506e+01 -1.944690696444889966e+01 1.855997867523956302e+01
-1.990657670522961098e+01 -1.939087624195538950e+01 1.850230524685980527e+01
-1.993698499155976833e+01 -1.945085175445160530e+01 1.859522566339728655e+01
-1.993514410551770766e+01 -1.941402610682650476e+01 1.855735697279396845e+01
-1.989269335938276129e+01 -1.938396506314744983e+01 1.849258679417926032e+01
-1.989799725724120094e+01 -1.938757709045228239e+01 1.851663332554267072e+01
-1.998504230665338355e+01 -1.938362835236740267e+01 1.859364270116452644e+01
-1.996097258492913795e+01 -1.934210287283116969e+01 1.847115916558891513e+01
-2.005469030303714817e+01 -1.933927065175547000e+01 1.854412868018926019e+01
-2.024062636698077711e+01 -1.927929124646379222e+01 1.858822109041921067e+01
-2.025967342444360497e+01 -1.925733874468308926e+01 1.864141365903969927e+01
-2.023436563824272127e+01 -1.922071268633827401e+01 1.847989667306410411e+01
-2.025349762203920534e+01 -1.924131229941729515e+01 1.859616089601149724e+01
-2.025213370173189276e+01 -1.923038638225255426e+01 1.856187008672486627e+01
-2.029654666980958666e+01 -1.920835145513704134e+01 1.858801023929640905e+01
-2.032313184144088325e+01 -1.916210588974562512e+01 1.858907302760349012e+01
-2.034139998999279442e+01 -1.917914558113514545e+01 1.861359584348906537e+01
-2.027776961216977725e+01 -1.919530425209281788e+01 1.847574475428132246e+01
-2.031693854851683056e+01 -1.917090016961913079e+01 1.856053600255881975e+01
-2.028099301618101435e+01 -1.915240164020138280e+01 1.849397884961558702e+01
-2.013963521101584320e+01 -1.889842544054594242e+01 1.838568602025338805e+01
-1.977134921690479530e+01 -1.859856857437426214e+01 1.815303553479429866e+01
-1.957372557889638642e+01 -1.852411040762416405e+01 1.807612667493253866e+01
-1.930206380830708213e+01 -1.823150726247803277e+01 1.790387418069758496e+01
-1.915798370061556000e+01 -1.761577906734041221e+01 1.766002438779719341e+01
-1.931755334878555175e+01 -1.701358480751785152e+01 1.756135739668866336e+01
-1.967177309277018082e+01 -1.636045311773314381e+01 1.756421439088626357e+01
-2.005480047933859566e+01 -1.594812861387399749e+01 1.774084052262605837e+01
-2.039579928695148681e+01 -1.563700809060780017e+01 1.771519075315450209e+01
-2.081602888540631113e+01 -1.536719090610876748e+01 1.777837827522944281e+01
-2.142010660430456426e+01 -1.515556051179610364e+01 1.800209322921955390e+01
-2.196480101460588230e+01 -1.504452270036534856e+01 1.815744340778633159e+01
-2.253565415643519998e+01 -1.497542177775663674e+01 1.841072606715533766e+01
-2.294968425158344871e+01 -1.491692890418288187e+01 1.859383781848669059e+01
-2.351289468086969237e+01 -1.477323712841897674e+01 1.886031353063458482e+01
-2.414360775482083454e+01 -1.467906452216739410e+01 1.924518348406718360e+01
-2.467564700927893284e+01 -1.443985709105232473e+01 1.942440655112682180e+01
-2.496062354186535970e+01 -1.441084968173249337e+01 1.951768551472696345e+01
-2.530892770372531686e+01 -1.427990253141091159e+01 1.978058498075847638e+01
-2.556407657438273873e+01 -1.395238870805385289e+01 1.979711125994072063e+01
-2.570959344210500319e+01 -1.364394241006678499e+01 1.982960346432719234e+01
-2.572179486388715475e+01 -1.338344774242358426e+01 1.980484724773054950e+01
-2.569504144889603481e+01 -1.316878304392808730e+01 1.970445645232234710e+01
-2.570252395905367848e+01 -1.312814134080851147e+01 1.972152473998971800e+01
-2.567925015320763293e+01 -1.295876290400200759e+01 1.961287746779748886e+01
-2.570338165324727697e+01 -1.260130800340493096e+01 1.960771917360148109e+01
-2.556705668841431134e+01 -1.239927144485760380e+01 1.944514247641654947e+01
-2.531859027654459737e+01 -1.220249801637797304e+01 1.915705701742217570e+01
-2.500669794060532070e+01 -1.212487475920524815e+01 1.892452330128594440e+01
-2.442027978794315857e+01 -1.181271481209796548e+01 1.848113172526541348e+01
-2.394547990269650484e+01 -1.177035275253147262e+01 1.817235524940360847e+01
-2.362190550271691336e+01 -1.172860024812865731e+01 1.798177918450505786e+01
-2.323619388369371563e+01 -1.157597979440484437e+01 1.772176344495460398e+01
-2.292820192557331893e+01 -1.155345154382044370e+01 1.750496923404102745e+01
-2.274015954471467182e+01 -1.151088984718247588e+01 1.733052704931264998e+01
-2.249417015831411959e+01 -1.140733562916461352e+01 1.713443622452723503e+01
-2.211648134704265090e+01 -1.120972856478091728e+01 1.683786020638740411e+01
-2.166332346348755777e+01 -1.085170809070211817e+01 1.649712953911966906e+01
-2.153010264247245686e+01 -1.067589295006519734e+01 1.639785519277893400e+01
-2.151592957404130857e+01 -1.062880259668003902e+01 1.638764421525252146e+01
-2.146524484262847920e+01 -1.063715453065190530e+01 1.637302523472840221e+01
-2.123936760351568864e+01 -1.043260712085928077e+01 1.611151552351680039e+01
-2.111276147459550145e+01 -1.032461570350078262e+01 1.598131419789524443e+01
-2.094370010937788606e+01 -1.013894070848361650e+01 1.592878630148243246e+01
-2.035622123968731501e+01 -9.551909046819872628e+00 1.535273042172548230e+01
-2.012302264569834165e+01 -9.106558986852796522e+00 1.522469612240865899e+01
-1.990281584612192489e+01 -8.493724214702687902e+00 1.494898081341762008e+01
-1.958976155454101331e+01 -8.129826274285967713e+00 1.475626700714519757e+01
-1.949125585269436556e+01 -7.761541697537879259e+00 1.471766597535702203e+01
-1.938477914543202019e+01 -7.349740790061993323e+00 1.464981818323099105e+01
-1.938043202048693558e+01 -7.342520333864236193e+00 1.468515981683844984e+01
-1.930375330713526694e+01 -7.199036473581195139e+00 1.461397057987028347e+01
-1.915710518667461315e+01 -7.131855853604768924e+00 1.449946422975995119e+01
-1.888975623799304060e+01 -6.918952182367739567e+00 1.440270540444794278e+01
-1.853173178320696479e+01 -6.719321376468180063e+00 1.416659505156462728e+01
-1.822745119549927040e+01 -6.430467003249390245e+00 1.413391265841869426e+01
-1.805114208744802795e+01 -6.422821850513969366e+00 1.403858161693437978e+01
-1.794325779658386466e+01 -6.401598498184512209e+00 1.409480224456456199e+01
-1.753633331825216146e+01 -5.908919153832194127e+00 1.392078234815221549e+01
-1.724686039259803749e+01 -5.377066919883866092e+00 1.391502019176823524e+01
-1.699398638291596342e+01 -4.730460035778207839e+00 1.409436857993864578e+01
-1.670657665878187004e+01 -4.193675655196855701e+00 1.413773344080505012e+01
-1.656597683590355530e+01 -4.023666037313226695e+00 1.417396345742736230e+01
-1.658447150535727133e+01 -4.068831993817745740e+00 1.426325618833516273e+01
-1.643896034557840835e+01 -4.076711690525513632e+00 1.421280192463200365e+01
-1.619383820352867076e+01 -3.992178949234826746e+00 1.403205727878935249e+01
-1.615672932530220862e+01 -3.986264447881218587e+00 1.404363508000983529e+01
-1.525802610255941261e+01 -4.011121495236871226e+00 1.358179589759993178e+01
-1.470943081677283715e+01 -3.814345315631832989e+00 1.348424420795208789e+01
-1.456104559754047045e+01 -3.730458292098191464e+00 1.363819170701412986e+01
-1.453588794649849092e+01 -3.502706375315838727e+00 1.367836831113891094e+01
-1.455421942506225719e+01 -3.501759948119314458e+00 1.369935411590199692e+01
-1.453033772500047860e+01 -3.490755046672340711e+00 1.368844070015143188e+01
-1.457216094036363074e+01 -3.474601932420263495e+00 1.376238721804338638e+01
-1.455854914690502255e+01 -3.472223515657816506e+00 1.370568563022152375e+01
-1.457146924275815536e+01 -3.404969979995712492e+00 1.365675896919492516e+01
-1.467774460202653586e+01 -3.321143773090554419e+00 1.373778255164006623e+01
-1.481866390235902031e+01 -3.021979954574632643e+00 1.384013906371887970e+01
-1.492775812625188792e+01 -2.098081019949191273e+00 1.442078327823628570e+01
-1.473036317274214468e+01 -1.120015279688921339e+00 1.686922003450035845e+01
-1.466206673481137557e+01 -9.749083777524560901e-01 1.631764537912636115e+01
-1.468970219851250647e+01 -1.217297787956908905e+00 1.617713823315011723e+01
-1.470371069288233912e+01 -1.305799661760751462e+00 1.624703028566614194e+01
-1.469592474452154818e+01 -1.284023858962768827e+00 1.621962618659813415e+01
-1.470202981819014099e+01 -1.261067886764628554e+00 1.622384951267781616e+01
-1.470381387865820955e+01 -1.252778859345674789e+00 1.619380055920669292e+01
-1.467840435795521614e+01 -1.115111533043730674e+00 1.597159120980859370e+01
-1.438510829809372638e+01 -1.958176212099189684e-01 1.561662526640589022e+01
-1.365064321600455344e+01 3.423867226775456629e-01 1.484725372321372561e+01
-1.331519829737302985e+01 9.376803686174426389e-01 1.487660693262932909e+01
-1.320251198938548498e+01 1.117040961094744489e+00 1.488845551631743547e+01
-1.317221886280765375e+01 1.148745214738106313e+00 1.492991335078386328e+01
-1.311609059569251201e+01 1.336002638405474841e+00 1.489310895803009771e+01
-1.293998013389365553e+01 1.982027700061799180e+00 1.510353909951641072e+01
-1.266547441844292621e+01 2.663179930478584367e+00 1.526715937604831197e+01
-1.261768655302822140e+01 2.884703360674151895e+00 1.529201273771514025e+01
-1.250805459306911871e+01 3.274204819196505412e+00 1.529715369272184944e+01
-1.236694744476262997e+01 3.430636998936464011e+00 1.536641547921976780e+01
-1.214305939683521274e+01 3.967072100810732138e+00 1.536774467616851325e+01
-1.192158425132323885e+01 4.101630937284404865e+00 1.523631860368209345e+01
-1.179630762209208683e+01 4.072620797185123820e+00 1.522782907466830693e+01
-1.145879205626133057e+01 3.986982882007772844e+00 1.496285541298675525e+01
-1.112345302524806812e+01 3.847031859442232360e+00 1.475450818114700269e+01
-1.090622072977400592e+01 3.708530051520490645e+00 1.465912535761958679e+01
-1.077062912427514618e+01 3.600591711495574998e+00 1.459426629174731715e+01
-1.061453702425303902e+01 3.558894737614082260e+00 1.445139318568772069e+01
-1.047377598878757965e+01 3.430996666753912905e+00 1.441232775818730261e+01
-1.021470617182622220e+01 3.392717871339158364e+00 1.424584768515865107e+01
-1.006468328049363947e+01 3.295600966988018854e+00 1.425355751136294202e+01
-9.655529348421453051e+00 3.205090432378327137e+00 1.400776564345824227e+01
-9.494422825298414637e+00 3.175023579235485727e+00 1.402920452077523805e+01
-9.218609232628892869e+00 3.405773331015751637e+00 1.393241119956746843e+01
-9.139225303048505111e+00 3.746431351404801546e+00 1.401951903559211132e+01
-9.203212403233166583e+00 4.500835277071047358e+00 1.416759303020990046e+01
-9.441268880291559640e+00 5.192363657695452162e+00 1.439636959709923758e+01
-9.680450298418250554e+00 5.882497784181559553e+00 1.466688292852177256e+01
-9.857273178157399229e+00 6.432322748932236323e+00 1.476769032532683923e+01
-9.927446499502593724e+00 7.127417974240298548e+00 1.492259736171922668e+01
-1.005880425741874262e+01 7.466926667769481440e+00 1.514730141144218578e+01
-1.016963837383077873e+01 7.883273311842685871e+00 1.513675094715858904e+01
-1.033991018076439161e+01 8.184801979460804233e+00 1.527537665691897928e+01
-1.065702846236227685e+01 8.398597307746808127e+00 1.535310566676048438e+01
-1.107571121146656878e+01 8.538565724624596953e+00 1.560030328315656334e+01
-1.142176006961476276e+01 8.712067956771498700e+00 1.573322595111244482e+01
-1.170889118276346608e+01 8.852450682215831534e+00 1.596702468179773859e+01
-1.189580396732426948e+01 9.026730610392949217e+00 1.603714202900209784e+01
-1.222436162884089583e+01 9.452668312893653280e+00 1.625110145601638578e+01
-1.234579754322530221e+01 9.894716976843852763e+00 1.633973772647050282e+01
-1.254973135233848325e+01 1.029571459701100977e+01 1.654556345130094996e+01
-1.256908830184525527e+01 1.071448507844346665e+01 1.655188224233825167e+01
-1.248256500995429974e+01 1.104269007537620695e+01 1.643742959441806306e+01
-1.239464245447065593e+01 1.119668047683054013e+01 1.644854032203488714e+01
-1.174520179082988136e+01 1.173523377571664739e+01 1.600114386917266529e+01
-1.121622665751614534e+01 1.192027817308277804e+01 1.585743301557818086e+01
-1.097589787936995265e+01 1.188739306403740059e+01 1.568195003444157010e+01
-1.052705689757249274e+01 1.186018527134111622e+01 1.552244685623804799e+01
-1.026209209407794276e+01 1.185433846506336764e+01 1.547745800861321186e+01
-1.000626150291196836e+01 1.200678424428781454e+01 1.532491859183801353e+01
-9.263961004962226298e+00 1.266277235699571690e+01 1.505334194567581108e+01
-8.791824308613911398e+00 1.328201925830605035e+01 1.495808730247449603e+01
-8.717985401949519542e+00 1.374202601422497949e+01 1.490310305123603030e+01
-8.686936027314757780e+00 1.456454726810613209e+01 1.494445677609087397e+01
-8.966443560728222906e+00 1.520092503377274795e+01 1.498745452002776801e+01
-9.572257895066684341e+00 1.571338985620991124e+01 1.524193714778698450e+01
-1.005542013269243284e+01 1.612301705160654208e+01 1.531904684073560929e+01
-1.055298361532321394e+01 1.648993536876503185e+01 1.557636457420903753e+01
-1.097500827606666007e+01 1.661919152100806230e+01 1.569294668085990452e+01
-1.152212705205624843e+01 1.667801650573769479e+01 1.586499349607856857e+01
-1.219699796800321678e+01 1.660794649556207503e+01 1.607997766693347330e+01
-1.290683993425655274e+01 1.652235648427854997e+01 1.643570287873012603e+01
-1.340035747218685458e+01 1.650198643357002481e+01 1.675337408893733482e+01
-1.396272992401139845e+01 1.681192087064165719e+01 1.708148458736513930e+01
-1.430392718700670684e+01 1.718649637751093806e+01 1.727360681197205849e+01
-1.433758299266314395e+01 1.736229428032102007e+01 1.724188963692836296e+01
-1.431888073730867461e+01 1.733106323323044862e+01 1.725762540549817459e+01
-1.431245388134691154e+01 1.735125250156253429e+01 1.727190763990279265e+01
-1.430893780044256403e+01 1.745111130726335702e+01 1.724195192443630731e+01
-1.432833251207289038e+01 1.770356002305987175e+01 1.714650025321179783e+01
-1.435247407067286929e+01 1.833943983380284592e+01 1.713447751269313812e+01
-1.357533878401098093e+01 2.003238397127771009e+01 1.654794335639985547e+01
-1.317945747689272196e+01 2.081788492757385711e+01 1.643084698842608304e+01
-1.257623744637719199e+01 2.178233851315783198e+01 1.618078606219523863e+01
-1.221446893323754068e+01 2.181427219605255274e+01 1.614441260112926102e+01
-1.162666690016035886e+01 2.184508209205591100e+01 1.588998864644190689e+01
-1.081088570693781037e+01 2.190733643696089672e+01 1.569453619796809107e+01
-1.002893714614943121e+01 2.174194052707331437e+01 1.565284289947976504e+01
-9.178058081691816028e+00 2.180898440494398827e+01 1.550807293231491713e+01
-8.490685540951545818e+00 2.175769659753855123e+01 1.537808560303051308e+01
-7.551367085812742630e+00 2.181332367813603668e+01 1.516906767893715369e+01
-6.731987581474328408e+00 2.169974302098535546e+01 1.496219041537960948e+01
-5.938364392495458333e+00 2.160434876427112982e+01 1.480157541661264986e+01
-5.290462984955169645e+00 2.150715413002523846e+01 1.473966579106036079e+01
-4.798003117565485809e+00 2.117586755274236410e+01 1.463689763824800139e+01
-4.339079591079752163e+00 2.095058623653475394e+01 1.463777707330541489e+01
-4.049006662677768986e+00 2.054107503736106466e+01 1.462815269796874418e+01
-3.816808129724805099e+00 2.011790851499227983e+01 1.456550025516685309e+01
-3.599941568745734344e+00 1.960793515648081708e+01 1.456753752701047233e+01
-3.531585124697414813e+00 1.900808309324046519e+01 1.452272201164350918e+01
-3.446638217731759823e+00 1.865374477674610887e+01 1.458625893778412319e+01
-3.184543403272058981e+00 1.811880285919171385e+01 1.452860011365237369e+01
-3.042523208950953517e+00 1.744809036193478136e+01 1.453616803854288264e+01
-2.892243948536545872e+00 1.680507116112132948e+01 1.454743957580853930e+01
-2.781173432081374131e+00 1.634766815990364819e+01 1.466380285172817821e+01
-2.516568912544727254e+00 1.577130029276609235e+01 1.473208369456983746e+01
-2.432836227191458534e+00 1.526417883532114317e+01 1.480308827153976381e+01
-2.282276777635530607e+00 1.453639172981284133e+01 1.493934075478887280e+01
-2.446798270696078248e+00 1.375988813661706445e+01 1.501504307986851927e+01
-2.517666263625130796e+00 1.329372153880549234e+01 1.510456375516014305e+01
-2.700288448819293308e+00 1.278495578454765891e+01 1.492049489394798911e+01
-3.210529280288184850e+00 1.214138199213541114e+01 1.489988973319805154e+01
-3.674783108965343104e+00 1.163878070626612526e+01 1.482250581964854064e+01
-4.102267431569970313e+00 1.144485684825057703e+01 1.481610585285238813e+01
-4.839662172391726358e+00 1.124305170607179960e+01 1.459300594091951098e+01
-5.639661067159110530e+00 1.123854940702868177e+01 1.460000672168848723e+01
-6.544815331228775790e+00 1.119977739776685510e+01 1.464716984678557310e+01
-7.212038290348658620e+00 1.116646036743156145e+01 1.469950647338669114e+01
-8.036390530716303715e+00 1.124900547793448524e+01 1.483974534805838630e+01
-8.686051481868517499e+00 1.164720578184251210e+01 1.498004483069871640e+01
-9.425988165080724457e+00 1.233231996126509955e+01 1.526815763229910772e+01
-1.003053600236052034e+01 1.311843258739686036e+01 1.551791541913007677e+01
-1.052845581694710120e+01 1.399844093049101090e+01 1.563368931590184729e+01
-1.087623265323276200e+01 1.492463615064570703e+01 1.572760760712185402e+01
-1.101500696065971852e+01 1.592343200711949791e+01 1.578900743464441803e+01
-1.112155134457050565e+01 1.670922564745516681e+01 1.581322696202482803e+01
-1.120483302753493149e+01 1.748996781499890574e+01 1.589933456643279897e+01
-1.125523163916673752e+01 1.795366063336932783e+01 1.589104438388176277e+01
-1.132913893246744408e+01 1.874502726883080328e+01 1.589374574289013253e+01
-1.141528515779310737e+01 1.956820590536765536e+01 1.587881495614237792e+01
-1.145773669694979446e+01 2.056413002510166521e+01 1.594821705063236550e+01
-1.150166443919718517e+01 2.115649037792835685e+01 1.591507923375570499e+01
-1.148814847346908152e+01 2.209944045245110189e+01 1.600714222902047368e+01
-1.135359132576635943e+01 2.312777287382927582e+01 1.619230248927078719e+01
-1.146011704323908020e+01 2.400316618463558882e+01 1.633042116627802898e+01
-1.169852122923255422e+01 2.476485831445267749e+01 1.644656917762108606e+01
-1.189777045535427646e+01 2.512216681694421538e+01 1.659340165889193486e+01
-1.214180082382320336e+01 2.575147019049019192e+01 1.664417104523067792e+01
-1.238420273940408833e+01 2.637744812641096104e+01 1.690225203479826632e+01
-1.250835330489636021e+01 2.716282251906291378e+01 1.692719481774156520e+01
-1.266038042421256193e+01 2.766915742468322748e+01 1.709811755493342389e+01
-1.280457069873303055e+01 2.811748414433033361e+01 1.730050691784708761e+01
-1.300431808220842811e+01 2.868956335319562001e+01 1.743301875234806175e+01
-1.325921158647331310e+01 2.911209332160040120e+01 1.770179921758153796e+01
-1.375935791163817612e+01 2.986871521819999487e+01 1.818987056230776034e+01
-1.423243181205734231e+01 3.059313074975251823e+01 1.882357382761551889e+01
-1.446337896940947587e+01 3.090963286575441415e+01 1.914385995277666552e+01
-1.471193729359991664e+01 3.099987600775809682e+01 1.924600256086455374e+01
-1.497336167855090139e+01 3.097733997039430420e+01 1.948752766263373815e+01
-1.515540378033733759e+01 3.111658613767690440e+01 1.954352418044049955e+01
-1.550094661561396947e+01 3.123407871230993393e+01 1.984613178967379099e+01
-1.574221584623396097e+01 3.108326774737118114e+01 1.995547179085997413e+01
-1.625666665650366838e+01 3.039017763387919757e+01 2.004582581488216420e+01
-1.643788237958855802e+01 2.995323028449889335e+01 2.002042727812249723e+01
-1.663743805357647432e+01 2.972257085563113677e+01 2.009058868588454061e+01
-1.689507681783889836e+01 2.908814822420226420e+01 2.011971941171577782e+01
-1.731476810884311135e+01 2.861876528367305639e+01 2.030300795387302060e+01
-1.747540608466036360e+01 2.849134006027545496e+01 2.032516383072857025e+01
-1.805311186688049929e+01 2.788645109356692586e+01 2.056923380507919319e+01
-1.824947636286677266e+01 2.777026596611655407e+01 2.065035221618063588e+01
-1.889139898547669816e+01 2.707031349685892962e+01 2.082144453570208498e+01
-1.899799644114719399e+01 2.700116620879094143e+01 2.081814094935975845e+01
-1.902920142180299479e+01 2.684305548930738183e+01 2.069707057161508601e+01
-1.922875684212822023e+01 2.650306985973041662e+01 2.067069559343735818e+01
-1.960526132501759378e+01 2.596974109472016323e+01 2.075474612831908416e+01
-1.984945822725229903e+01 2.561269663492238635e+01 2.078987229811718862e+01
-2.005730426023774271e+01 2.556990685813437025e+01 2.091011860508160680e+01
-2.061316800364529911e+01 2.523911642851136961e+01 2.132219648069940376e+01
-2.093660025265654667e+01 2.510732711891106916e+01 2.152800192318022710e+01
-2.100988224674432558e+01 2.503075461679199165e+01 2.167875645169442578e+01
-2.111216874897016282e+01 2.515205745329427600e+01 2.174885573038750408e+01
-2.144564687798958857e+01 2.538172736104159810e+01 2.215572935279556077e+01
-2.208355364117294073e+01 2.576842590911593334e+01 2.312462198056095986e+01
-2.221258031136949285e+01 2.598825346132281311e+01 2.358664433405056116e+01
-2.235184605967803861e+01 2.636015521706232079e+01 2.465194961168072041e+01
-2.220298238954987369e+01 2.647829227702799670e+01 2.517842395984348514e+01
-2.210101141611289677e+01 2.657588939962962371e+01 2.502532810980687827e+01
-2.206994785901379430e+01 2.661496776669270758e+01 2.504321531429832248e+01
-2.194860896055435262e+01 2.674447676979321642e+01 2.501421717757057195e+01
-2.189419288452776868e+01 2.683514431803170197e+01 2.498985716977017546e+01
-2.163381833865786064e+01 2.749158309474132267e+01 2.484032775618902633e+01
-2.139824262460226123e+01 2.844351406599046683e+01 2.525191139609978563e+01
-2.134102260089278502e+01 2.876658398753744450e+01 2.540319141438999395e+01
-2.121521603574569781e+01 2.931587592061997327e+01 2.552641909010071686e+01
-2.112550387452131417e+01 2.956202732229132479e+01 2.564598634569688329e+01
-2.087234763741022903e+01 3.036180370825587360e+01 2.576467455033025544e+01
-2.074793931465332264e+01 3.057429409695830458e+01 2.587690347912916877e+01
-2.062077501215520670e+01 3.119276646477031534e+01 2.596712319785115142e+01
-2.065279503921999549e+01 3.177711581149378617e+01 2.654184169892664613e+01
-2.065194438253652720e+01 3.229836357500067834e+01 2.707729869462013994e+01
-2.080763394294156399e+01 3.260590892384634287e+01 2.775035053736064583e+01
-2.094771429384680062e+01 3.271657555454974187e+01 2.829969172706296376e+01
-2.107594312425381133e+01 3.279027795943089529e+01 2.874331894139027099e+01
-2.152094030703796079e+01 3.255071569729061309e+01 2.973376640950596084e+01
-2.193982474958754381e+01 3.200927556927081241e+01 3.031007542860743342e+01
-2.231008896014601817e+01 3.167823527688886998e+01 3.065233376649234742e+01
-2.271825995078825144e+01 3.121359590496417624e+01 3.095356254924467976e+01
-2.305811777202237067e+01 3.092982442785596220e+01 3.122393129754095753e+01
-2.367499434461421970e+01 3.046831782996389393e+01 3.167380847632261975e+01
-2.413377886399180738e+01 3.002493123664625685e+01 3.191135811867934535e+01
-2.459927352466580430e+01 2.961014375261667908e+01 3.215247379297670705e+01
-2.497272207016290224e+01 2.929560444892492299e+01 3.228611087415947623e+01
-2.522686162798454745e+01 2.906887136630540525e+01 3.225307809948867543e+01
-2.555267026799234031e+01 2.872837182688463287e+01 3.224928461767035515e+01
-2.587298716210528937e+01 2.846074038809134521e+01 3.222991133824598364e+01
-2.628041274927555548e+01 2.815576600124300199e+01 3.232086670575131393e+01
-2.678918829346565644e+01 2.784025904790101791e+01 3.270058688652261480e+01
-2.677961540814780506e+01 2.777417757586182034e+01 3.266516745060698668e+01
-2.705742888425611170e+01 2.750892859465078288e+01 3.268090073342273172e+01
-2.721259989410476976e+01 2.722181594770582080e+01 3.270125284316486614e+01
-2.730360124216703355e+01 2.714198471861134720e+01 3.255127699097852201e+01
-2.774614648010681606e+01 2.670137270955669351e+01 3.262222098401321091e+01
-2.794581423671063192e+01 2.655405351231277677e+01 3.269897060631251406e+01
-2.815096724677424334e+01 2.642898508228233112e+01 3.272200306508671019e+01
-2.844781445768724382e+01 2.615772506278976550e+01 3.286245388160318726e+01
-2.858712143429653452e+01 2.597564372235635943e+01 3.280556175879337388e+01
-2.874909426036661841e+01 2.579038863629782696e+01 3.274725620868525766e+01
-2.883492963769867856e+01 2.559846961946885813e+01 3.274679342974059182e+01
-2.890748728279758950e+01 2.553571225385345755e+01 3.270513208478587330e+01
-2.898377728161619871e+01 2.543893737739074368e+01 3.273595993092067147e+01
-2.906593419273208667e+01 2.529688225131296520e+01 3.263334879945637113e+01
-2.915970218083921850e+01 2.521897835785916442e+01 3.267326194781594495e+01
-2.945287587158773590e+01 2.494847481728130489e+01 3.268123610245402233e+01
-2.982776900019828759e+01 2.454315915390225911e+01 3.274468532780588248e+01
-3.082770287999325376e+01 2.354081334964506311e+01 3.371694099380943044e+01
-3.097975145362241278e+01 2.315460945852333907e+01 3.375087983586558948e+01
-3.103733027055872640e+01 2.308015673315772887e+01 3.372892024434145242e+01
-3.097704728954406050e+01 2.295500457664014959e+01 3.373613764359788547e+01
-3.102662457095884463e+01 2.282306976589332592e+01 3.382528881168559565e+01
-3.107567886967473214e+01 2.236541368982787148e+01 3.386952993874751883e+01
-3.101093333438633692e+01 2.124037918069831576e+01 3.457638870660753128e+01
-3.091783103495036755e+01 2.069162606129588156e+01 3.498762106851177123e+01
-3.090417001312904688e+01 2.037424438828360707e+01 3.531646773682359708e+01
-3.094424023978272942e+01 2.035116051943304427e+01 3.531973468890828372e+01
-3.108078887465808293e+01 2.031182925242773862e+01 3.549220366994927645e+01
-3.162821819262181577e+01 1.999001201688202656e+01 3.639041717986788171e+01
-3.190505536599187053e+01 1.987085580816500752e+01 3.670915597700582111e+01
-3.229214098533655886e+01 1.979759646387165617e+01 3.706459687945971382e+01
-3.255538151168380523e+01 1.980151095655198645e+01 3.732199144561104731e+01
-3.294672311559813238e+01 1.979539056044427525e+01 3.762832104284734669e+01
-3.359624705315688686e+01 1.995731218739749124e+01 3.815285292344469781e+01
-3.381502047083489515e+01 2.006967173631447920e+01 3.816472627903431203e+01
-3.432590392529635892e+01 2.024419476208621305e+01 3.837613883842482210e+01
-3.452645331043970600e+01 2.029588840903285529e+01 3.854806803836117979e+01
-3.521605875920508311e+01 2.006291799844776591e+01 3.917956654757404067e+01
-3.576361763082466894e+01 1.992152636838215685e+01 3.981718519822857161e+01
-3.620277439921753171e+01 2.003538310038081249e+01 4.010916433709803641e+01
-3.652128474306400108e+01 2.035918077351319155e+01 4.020750310511016323e+01
-3.700276941790357910e+01 2.071823710054822598e+01 4.046882629692777300e+01
-3.749964883474878263e+01 2.114992712001474473e+01 4.081453287848080436e+01
-3.811629907790107552e+01 2.186422531229957755e+01 4.118177769471571992e+01
-3.853612921564894123e+01 2.234820652866181945e+01 4.146853959361328634e+01
-3.884446952730995406e+01 2.274419798802267323e+01 4.171374188470144873e+01
-3.916062449807304802e+01 2.305522215354680426e+01 4.201323450261293146e+01
-3.966138974871218181e+01 2.320452224645359962e+01 4.256176160022755539e+01
-3.977595284844977641e+01 2.316311106290112320e+01 4.265754070367415807e+01
-4.023303365697834977e+01 2.315341710809916265e+01 4.297377834185431311e+01
-4.063348576113396859e+01 2.312766177244334642e+01 4.311327973883680897e+01
-4.089870753226277600e+01 2.305572953213086862e+01 4.315713461215477764e+01
-4.113447358377558771e+01 2.274809486087643506e+01 4.319862008428344780e+01
-4.135456320178460032e+01 2.227477558016921577e+01 4.328101545992990395e+01
-4.147332128453754763e+01 2.205716964505429090e+01 4.329277068840474385e+01
-4.149754231798996784e+01 2.182685213282817216e+01 4.324521574160917226e+01
-4.161446995132835980e+01 2.155035622903261228e+01 4.334297902857838380e+01
-4.203114522156400312e+01 2.073944065791767599e+01 4.358706177939166082e+01
-4.251160367860236988e+01 1.979643251893817180e+01 4.378643431699538269e+01
-4.199505518632315670e+01 1.959999210659597679e+01 4.371409663162489778e+01
-4.148916064962227779e+01 1.913731865885837635e+01 4.376574388878975697e+01
-4.099640287085338741e+01 1.870803045043174961e+01 4.383312883329676879e+01
-4.054847606454391951e+01 1.836545021900900565e+01 4.376828719628201725e+01
-3.999285939109810784e+01 1.790484130757172920e+01 4.383418893369093894e+01
-3.946514437721907598e+01 1.738368481732243964e+01 4.389721005322826386e+01
-3.911457141812752525e+01 1.688827652598060780e+01 4.407097343783311771e+01
-3.853782795903931913e+01 1.625243073604477573e+01 4.422974892953357084e+01
-3.827835993592391617e+01 1.586950212799769133e+01 4.444714883797723814e+01
-3.801810995992762798e+01 1.517791851532598812e+01 4.461768793446117343e+01
-3.796872944718209908e+01 1.484073073235339280e+01 4.476034764718087899e+01
-3.797963451541252766e+01 1.454724212047552712e+01 4.487292988834065000e+01
-3.814531869219678129e+01 1.409935985632567323e+01 4.506168061127505098e+01
-3.820172543286197708e+01 1.391820669105106134e+01 4.518999813517825714e+01
-3.832692366434748976e+01 1.331452713259729492e+01 4.531881761103886674e+01
-3.852506762204609458e+01 1.236438959619517064e+01 4.565789641048172598e+01
-3.837769556895948142e+01 1.152730325066711004e+01 4.583996236455095641e+01
-3.883324645562095156e+01 1.041022873171080576e+01 4.635355140084175218e+01
-3.926802620024635360e+01 9.851561339846973908e+00 4.677771544767870182e+01
-3.959025674383515536e+01 9.722730356354180259e+00 4.691340139421572530e+01
-4.005298347091893163e+01 9.693132499249315970e+00 4.697540737907752373e+01
-4.028922750288994337e+01 9.769812419292083661e+00 4.689283206964842066e+01
-4.059565948187866979e+01 9.975518623937343676e+00 4.677836925775432064e+01
-4.087810529150840466e+01 1.012523691250273217e+01 4.676411591425676306e+01
-4.118019629784399172e+01 1.041708564561194095e+01 4.653808363612552057e+01
-4.136724612054885597e+01 1.099386160073533958e+01 4.635774090166432870e+01
-4.151996320559486264e+01 1.144186883901666718e+01 4.633754557458564705e+01
-4.167176969651318075e+01 1.178519775807792058e+01 4.622608988616434544e+01
-4.182539941609574896e+01 1.236772420763790592e+01 4.596587432658998296e+01
-4.195990176933558757e+01 1.286856432022555552e+01 4.585435007547198438e+01
-4.215499756590483571e+01 1.343615691569883452e+01 4.564329476007696940e+01
-4.225475957423257967e+01 1.386500806831461219e+01 4.558396740729540397e+01
-4.237481738139516096e+01 1.428981177636693189e+01 4.541584264647531199e+01
-4.242185341672360721e+01 1.455145698455551440e+01 4.530416910524490959e+01
-4.260155200845161971e+01 1.483908187793444711e+01 4.519370734395624822e+01
-4.288693323199174756e+01 1.514583227358313522e+01 4.508667995866585443e+01
-4.297890429129185463e+01 1.528056100178940468e+01 4.514027500348856847e+01
-4.311582425797929830e+01 1.564639695927645846e+01 4.495326109135794468e+01
-4.330142595308805653e+01 1.605804747375871600e+01 4.484437499575324182e+01
-4.339739951031877752e+01 1.671909510259546039e+01 4.464564430817586071e+01
-4.346717739882083720e+01 1.719407887507815502e+01 4.454641869574948032e+01
-4.355868830407122516e+01 1.746982453797658863e+01 4.438542815881214665e+01
-4.363866527511693505e+01 1.750005417978124456e+01 4.442484936058917810e+01
-4.384807740514189334e+01 1.756968966450069303e+01 4.439606675107415867e+01
-4.413694907629745501e+01 1.752846953402953289e+01 4.444864114943129607e+01
-4.428088733128012677e+01 1.750995460465389542e+01 4.434867506360774314e+01
-4.458087523250389950e+01 1.737146112618012594e+01 4.434884178696802337e+01
-4.498703686456332207e+01 1.675110644295917339e+01 4.449128989007931523e+01
-4.525450298245915803e+01 1.621513353445814332e+01 4.455385577332526736e+01
-4.545234685350385462e+01 1.542931438411727640e+01 4.463163500416339957e+01
-4.536627220378214531e+01 1.484104838874250021e+01 4.472965068112353038e+01
-4.514022540214298829e+01 1.395391538499451656e+01 4.501559739770368651e+01
-4.506896482051436692e+01 1.341810201112297918e+01 4.510231858149109030e+01
-4.462577935695401266e+01 1.285230929145293999e+01 4.529080760663555338e+01
-4.405069098884649748e+01 1.213439838656761083e+01 4.561321039130234567e+01
-4.351640984249898736e+01 1.151325727750706918e+01 4.576233982524900057e+01
-4.312638093401307060e+01 1.069264915346570888e+01 4.616732159888965725e+01
-4.253506266862044072e+01 1.014275441833845548e+01 4.634576971618662355e+01
-4.212424058786781700e+01 9.534426156159916843e+00 4.663331034537623054e+01
-4.176668471292987306e+01 8.994769597239702819e+00 4.684224943342564984e+01
-4.163430329750605097e+01 8.301252170736873381e+00 4.717421552425776099e+01
-4.154561752864887580e+01 7.814561104972547412e+00 4.732408692093144964e+01
-4.145065742609199333e+01 7.377886972536288113e+00 4.744726395447128198e+01
-4.150301201286542607e+01 6.956716867125841475e+00 4.756250773761416895e+01
-4.173554164093961560e+01 6.283768924743021955e+00 4.773376924188823978e+01
-4.223718533162148958e+01 5.461834787460460916e+00 4.818691443760167203e+01
-4.267733104576477388e+01 4.836994038609496727e+00 4.830087571132276025e+01
-4.294782318193530557e+01 4.365023082218677075e+00 4.851573447269356620e+01
-4.342780787182542213e+01 3.842062270051421535e+00 4.867265432417730153e+01
-4.382791443003922893e+01 3.572282173086840373e+00 4.880844663364132430e+01
-4.432764115807967187e+01 3.217038672213568873e+00 4.894464473813263794e+01
-4.461613750679919121e+01 3.126521237181314916e+00 4.897866107732897945e+01
-4.460910236992916111e+01 3.135154511428595470e+00 4.901350712751172978e+01
-4.491431964516321784e+01 3.144144381043616931e+00 4.890457419222934732e+01
-4.533081131309650402e+01 3.001423888373736304e+00 4.888785958025505352e+01
-4.565786622515503268e+01 2.694087394222599130e+00 4.887346213312639520e+01
-4.608411784632836827e+01 2.422946274751403450e+00 4.895938719668947670e+01
-4.640197381931432119e+01 2.367142336498048394e+00 4.896104688250056824e+01
-4.698997865902921944e+01 2.354315335799867626e+00 4.899705056351444910e+01
-4.763822913400771597e+01 2.440493984251730808e+00 4.897675657991862863e+01
-4.807460432103496828e+01 2.456244309069312237e+00 4.898621280799443412e+01
-4.839255994332545185e+01 2.528127253239503602e+00 4.894025930379893907e+01
-4.866828221512915320e+01 2.841728042143550681e+00 4.874437200296074479e+01
-4.887632607427046594e+01 3.083729712237158083e+00 4.867472224413268123e+01
-4.912948177227632129e+01 3.217831139136414720e+00 4.865074717357947520e+01
-4.937235315483940212e+01 3.588138805323559666e+00 4.845612279028887315e+01
-4.959053500859995722e+01 3.833953012928887460e+00 4.823310243863124924e+01
-4.982068340098400938e+01 4.149231295908961670e+00 4.805020015683589918e+01
-5.001478443031007259e+01 4.513763859078913754e+00 4.786531568071040965e+01
-5.019150742796615816e+01 4.769588123799380242e+00 4.777370637953208643e+01
-5.034975045830969975e+01 5.266023543052483546e+00 4.739537799015829478e+01
-5.052440061092887902e+01 5.727383295299922850e+00 4.700842513310863069e+01
-5.075315083278024986e+01 6.447497858002542159e+00 4.656415307847987606e+01
-5.098143393534739687e+01 7.231429359619653496e+00 4.622820213151999269e+01
-5.121707095696967826e+01 8.016202172520536351e+00 4.574948121364900544e+01
-5.154138804090756310e+01 8.453868731089151822e+00 4.560995970502608543e+01
-5.180423043197647814e+01 8.593892559891983751e+00 4.543960410280533324e+01
-5.226937039990002631e+01 8.472997068056439929e+00 4.547628719104886841e+01
-5.292094844482789995e+01 8.187588540076152555e+00 4.560036920462675880e+01
-5.332253431330310889e+01 7.927898634430551539e+00 4.578766274498843813e+01
-5.345269054435205192e+01 7.517053100657065556e+00 4.609730399114096144e+01
-5.334620901388132097e+01 7.060129546457339700e+00 4.634757750556696010e+01
-5.317230642432173227e+01 6.529117201753109612e+00 4.660160200125983465e+01
-5.311802839854053104e+01 5.522141140394779768e+00 4.752853834568668390e+01
-5.289240224201853380e+01 4.597682011522557843e+00 4.830067745062615359e+01
-5.283095365171949709e+01 4.148851845771609703e+00 4.864229594305447790e+01
-5.111963517097913723e+01 3.345645147188804458e+00 4.881807505970596139e+01
-5.039377653649098932e+01 3.266333093861582881e+00 4.869845926217954002e+01
-4.978820156352148274e+01 2.678484224562126315e+00 4.902065084562764241e+01
-4.898743098166723087e+01 2.559867155871145883e+00 4.889566101363880080e+01
-4.817430892660813413e+01 2.259355984422334984e+00 4.906140775578478497e+01
-4.754239569160809253e+01 1.997141604266474246e+00 4.917069223953490109e+01
-4.697217978645866765e+01 1.625028977311764322e+00 4.934562420247107184e+01
-4.656574437040637804e+01 1.198003677914897480e+00 4.953398565043698909e+01
-4.642270037665342386e+01 7.005445468904270001e-01 4.982268218469675958e+01
-4.610478465771616641e+01 1.567882721338591523e-01 5.002942186457266871e+01
-4.580599536426049667e+01 -4.408610900275533595e-01 5.012667474697127545e+01
-4.556386622720519597e+01 -8.652967194745713186e-01 5.001602260292793289e+01
-4.550146605181706150e+01 -1.450239263369333287e+00 5.006991500106960302e+01
-4.541156376366068059e+01 -1.842366692073824197e+00 5.000567157344175939e+01
-4.544123347298516080e+01 -2.386478826900152228e+00 4.986584867684882738e+01
-4.557447597293976571e+01 -2.789204626623309480e+00 4.983279413541617942e+01
-4.576292317263100529e+01 -3.272396850825138870e+00 4.978230125804361705e+01
-4.588325862583613457e+01 -3.871177310334907418e+00 4.979533429053935834e+01
-4.592106714714991256e+01 -4.170356212791247685e+00 4.980607262297849047e+01
-4.653009926569156107e+01 -4.365792992403797257e+00 5.012193172526758644e+01
-4.670990756564992807e+01 -4.438375439983644810e+00 5.013177839117793155e+01
-4.690431192556788176e+01 -4.351148702769911836e+00 5.015183680340555838e+01
-4.748381095309957800e+01 -4.319436933892852437e+00 5.068719767302582113e+01
-4.781868555203244853e+01 -4.408164021344056493e+00 5.116105033164149063e+01
-4.795170433160940604e+01 -4.479384598838493048e+00 5.135948751992759753e+01
-4.797546970589201010e+01 -4.528270834290836433e+00 5.143927902634709426e+01
-4.808573263031564693e+01 -4.486004374474667600e+00 5.148821285651683866e+01
-4.821272172813782220e+01 -4.458740054595089930e+00 5.218526563782825178e+01
-4.825017302275021791e+01 -4.300528900553345579e+00 5.235685785501391365e+01
-4.829315835040024751e+01 -4.164809698725548515e+00 5.237427023564669071e+01
-4.829107359606909711e+01 -4.207242171325475510e+00 5.237264539099442118e+01
-4.831812150704470810e+01 -4.142441404870808697e+00 5.244228046374109908e+01
-4.831792454504224565e+01 -4.196143757832984988e+00 5.245111860793076630e+01
-4.824196651423795856e+01 -4.126186247197104251e+00 5.232061957672726749e+01
-4.861970898602653790e+01 -4.236624858403878591e+00 5.269015464888320821e+01
-4.869607953852030846e+01 -4.297665645869770401e+00 5.281912113595262781e+01
-4.873300718058054315e+01 -4.301302775545060797e+00 5.279416197431851288e+01
-4.887489706274035939e+01 -4.072717301577348792e+00 5.307474103458184800e+01
-4.894359610589479814e+01 -3.936923755354612808e+00 5.336559312485474038e+01
-4.903739538391293706e+01 -3.614822855805513768e+00 5.383439377092417999e+01
-4.918645684570596188e+01 -3.328527022944740565e+00 5.440489714008344890e+01
-4.919790794181918159e+01 -3.080477796462368190e+00 5.480260987118958838e+01
-4.920236789909743891e+01 -2.700693095278701605e+00 5.478400302941531663e+01
-4.932634740597575274e+01 -2.331034576605915731e+00 5.485061015510814286e+01
-4.938964009097111330e+01 -1.839160037851478080e+00 5.485972992131405590e+01
-4.953641917776282355e+01 -1.264643129958884060e+00 5.485983320061063750e+01
-4.966292331316005004e+01 -6.999156986288070925e-01 5.500195813792447552e+01
-4.990354191103693893e+01 -1.528464714345787456e-01 5.483209263460184957e+01
-5.019028093920056222e+01 2.990846360497059209e-01 5.480622921369968026e+01
-5.039317423927950301e+01 5.832033864970753712e-01 5.457515747938418826e+01
-5.075499314862688038e+01 1.052339719995281087e+00 5.446659528184727606e+01
-5.096022809784074070e+01 1.206169903061422133e+00 5.435308973168821467e+01
-5.127626497025653407e+01 1.555931586232659924e+00 5.402074405817620573e+01
-5.156326652188187154e+01 1.798357512459574536e+00 5.408254284749114049e+01
-5.172311775597900407e+01 1.998105708032525740e+00 5.376523934830629514e+01
-5.194978276978018528e+01 2.211466997948569713e+00 5.386751534913855721e+01
-5.206086533210125822e+01 2.471882438350760935e+00 5.408296681103774972e+01
-5.230299283994914106e+01 2.891500880274492147e+00 5.433227450276308446e+01
-5.261108427599552329e+01 3.464328689979943476e+00 5.442794139072225335e+01
-5.272270574549763467e+01 3.573592920871710987e+00 5.442046217655229157e+01
-5.279248144022346878e+01 3.578945167852992881e+00 5.450121455407361282e+01
-5.301460956277448133e+01 3.649067419903914811e+00 5.437355427845000122e+01
-5.324894277324069947e+01 3.783081155308732235e+00 5.411301798555018649e+01
-5.361573693062894108e+01 3.766502828148141191e+00 5.366040467450056894e+01
-5.386830202614088137e+01 3.938990141921188126e+00 5.348147604060977756e+01
-5.420267630526436164e+01 4.050931239086047242e+00 5.323694498600525549e+01
-5.440382768523686252e+01 4.103559081894594840e+00 5.308258325530573529e+01
-5.468489883025264930e+01 4.421624185602162527e+00 5.300873351143491163e+01
-5.496478442665674891e+01 4.548076035452957910e+00 5.294177035486154637e+01
-5.519670507496439882e+01 4.631583874315502669e+00 5.282275391990242497e+01
-5.536546248348541610e+01 4.755255594261640795e+00 5.272291157763402225e+01
-5.554836696656064987e+01 4.832078443729351136e+00 5.251067257483919093e+01
-5.580879037088335792e+01 4.908405971998313078e+00 5.214424754613742152e+01
-5.616520411566690996e+01 5.080297693876953957e+00 5.170025728163318490e+01
-5.633640932506919796e+01 5.234078684967059303e+00 5.178875637315354652e+01
-5.669537330023338484e+01 5.381421750839137985e+00 5.129046316116455273e+01
-5.692622554606774088e+01 5.666905040740910948e+00 5.205399885059227927e+01
-5.706853820486274742e+01 5.744334764999749154e+00 5.205680797232707846e+01
-5.718241499708580022e+01 5.748617178719424459e+00 5.211358936624469607e+01
-5.732721328224225488e+01 5.917541855751057511e+00 5.193639385515439244e+01
-5.766558226131537879e+01 6.274887673005906663e+00 5.256219897563869381e+01
-5.780764253233935790e+01 6.565355065655488431e+00 5.296159223168365315e+01
-5.795907799948957972e+01 6.827673691996373861e+00 5.294474405835489961e+01
-5.802277203501122926e+01 7.084828784146200320e+00 5.321659392024685076e+01
-5.801128544968923961e+01 7.092455619252763910e+00 5.322683577636007612e+01
-5.797128864754820654e+01 7.067797330492791019e+00 5.315328556578356256e+01
-5.793783079865659147e+01 6.971044788623892430e+00 5.333037036156088107e+01
-5.761973772936372029e+01 6.973364160956773361e+00 5.394876847786281360e+01
-5.732923432286537491e+01 7.213623027875833316e+00 5.441709768781902312e+01
-5.692382689009578201e+01 7.500562502384557462e+00 5.494804942247037616e+01
-5.637570512959501912e+01 7.631865131549862014e+00 5.534004206498912026e+01
-5.605801444486968421e+01 7.507754135031131426e+00 5.554969712200659160e+01
-5.575687744582977245e+01 7.340009512712111217e+00 5.563840199757737537e+01
-5.529471642859455471e+01 7.255846445871942052e+00 5.587113643407701602e+01
-5.496649792730175932e+01 7.123271872158436935e+00 5.598499123375154340e+01
-5.469326069033370175e+01 6.806363118977809989e+00 5.586704905534065801e+01
-5.441996023930086324e+01 6.486390629633259408e+00 5.584981905210338482e+01
-5.412617741852015740e+01 6.225934274697515036e+00 5.608020681547145614e+01
-5.380430224828815255e+01 5.855987211069059839e+00 5.586588683050354120e+01
-5.338667875686826392e+01 5.345270507072655164e+00 5.609548512596325054e+01
-5.272604966679800498e+01 4.604653546245010887e+00 5.598387021503071992e+01
-5.240820932235287444e+01 4.199911134650413658e+00 5.598390263357418917e+01
-5.186680179835185811e+01 3.749462721394969833e+00 5.617768737240203336e+01
-5.144321839463384549e+01 3.386223898116355713e+00 5.623720698891270331e+01
-5.079318641347346386e+01 3.106276312621211844e+00 5.653379173941698355e+01
-5.041510031158148308e+01 2.698841036900883950e+00 5.675278750537950145e+01
-4.998772760230936285e+01 2.492764404036556414e+00 5.694328844370784282e+01
-4.969092288816355563e+01 2.629099203654867267e+00 5.712078576052590506e+01
-4.946915208925669560e+01 2.722587669628595108e+00 5.740735033905684759e+01
-4.916409625821590623e+01 2.829901352793292801e+00 5.761019273050874290e+01
-4.891210413286489711e+01 2.985939760122089837e+00 5.787719037794317956e+01
-4.888256202345903034e+01 3.142046582164347512e+00 5.792069636406495192e+01
-4.882050352592783327e+01 3.328871580744724668e+00 5.813994529988622162e+01
-4.867569537140019520e+01 3.654841433127618444e+00 5.834570184863105169e+01
-4.861706271050174166e+01 3.851650398588070345e+00 5.854708368151432296e+01
-4.846281335564331982e+01 4.078215883910456085e+00 5.892460125329921539e+01
-4.831188241415011930e+01 4.525081038476585604e+00 5.932498955074970581e+01
-4.819065989164795383e+01 4.784273382102437466e+00 5.967936137738774960e+01
-4.810842676927009620e+01 4.943453717542514170e+00 5.973739847974889017e+01
-4.805515987645266307e+01 4.979328832164060969e+00 5.990768835157768990e+01
-4.805298507315414724e+01 4.997165393612490902e+00 5.996860289007986466e+01
-4.800417321285699757e+01 5.116559059918646568e+00 6.012435230866412894e+01
-4.795597070027653785e+01 6.150758541940753332e+00 6.089991808330273670e+01
-4.803971370200051183e+01 6.966011865979400142e+00 6.118082130139214314e+01
-4.801477335422647741e+01 7.995204780917735121e+00 6.162691546113137520e+01
-4.793168596644950696e+01 8.601650438857330272e+00 6.184717895054996006e+01
-4.798946434957764495e+01 8.897110167297164196e+00 6.199778634041376790e+01
-4.781474562800990213e+01 9.791568610539716389e+00 6.226619665335101672e+01
