-5.889162917277378995e+01 -4.309955761013292630e+01 7.446756378576719726e+01
-5.564211162164565394e+01 -5.081315294920631231e+01 7.159697139994750614e+01
-5.128419658033936912e+01 -5.545121722618095106e+01 8.271274244180312962e+01
-5.394273239838607026e+01 -5.005636714862686887e+01 8.661932398303497393e+01
-4.894695835836495235e+01 -5.592271964465029299e+01 8.838576863958564900e+01
-4.562616908075278843e+01 -6.222557330173374623e+01 7.873134135962050095e+01
-4.734441452916088622e+01 -6.108333893957025396e+01 7.069299226150042159e+01
-4.980307071922285900e+01 -5.797881637739939720e+01 6.487840762851624277e+01
-4.342723366152978315e+01 -6.458816400136637981e+01 6.316005083468098746e+01
-4.729868973141148558e+01 -5.856307351033230191e+01 5.614259423748671907e+01
-3.989725831191348959e+01 -6.479747212325779060e+01 5.256776659349429792e+01
-4.381210463886678497e+01 -5.855655503118723004e+01 4.869732883837195914e+01
-3.528737196557989364e+01 -6.215738757989072383e+01 4.366099849987449488e+01
-4.055157885966873721e+01 -5.624856277611876010e+01 4.186577411931011738e+01
-3.549903358820010624e+01 -5.566291154495170446e+01 3.622449440147806854e+01
-2.843108489761057456e+01 -6.191308492984921941e+01 3.751981708396397153e+01
-2.435797656410582590e+01 -5.778745497198015357e+01 3.037106195976389245e+01
-3.079889700594529245e+01 -5.174209022498978072e+01 2.854404912352470092e+01
-2.109340522967140430e+01 -5.480865392024563931e+01 2.611125037732972487e+01
-1.794621689113758123e+01 -5.004392807314511771e+01 2.193634692254181573e+01
-2.347111721046883304e+01 -3.954461796054119560e+01 2.003138520540437639e+01
-3.528561429070438749e+01 -4.135913089210703930e+01 2.655231586843592595e+01
-3.604659859575555458e+01 -4.881644957252480310e+01 3.034701373792245249e+01
-4.364119205156173109e+01 -4.311086090467424015e+01 3.503228217482455875e+01
-4.313382053051894616e+01 -5.001782642838076498e+01 3.887355387434195109e+01
-4.874643791692236050e+01 -4.388608196482731216e+01 4.252718036959549863e+01
-4.588908710861988993e+01 -5.582688871608254289e+01 4.823979752879972693e+01
-5.248236838882560562e+01 -4.738722680689248534e+01 5.188631283731501753e+01
-5.640408891680945658e+01 -4.290377005237493790e+01 5.897804125060133629e+01
-5.336237482965380252e+01 -5.255770446183431233e+01 6.247252484286218532e+01
-5.822331816783982106e+01 -4.274166689975405831e+01 6.683167544029538476e+01
-5.586910294246841602e+01 -5.013700107976703180e+01 7.447517823497537393e+01
-5.876877288086596707e+01 -4.142831429163131673e+01 7.583136709192967828e+01
-5.592583221402360039e+01 -4.439589874254075852e+01 8.738671420193691119e+01
-5.032733664117743899e+01 -5.159537836207201877e+01 9.191227253898273375e+01
-5.200092670839090658e+01 -4.345913385603031998e+01 9.586289044751470101e+01
-5.289546448240483301e+01 -3.079228305923513886e+01 9.708448601187842542e+01
-5.477985863769185926e+01 -1.771059407133959951e+01 9.675111921975212681e+01
-5.697525362778644364e+01 -1.909859846677273509e+01 8.877888519605562578e+01
-5.622123984464221280e+01 -3.011846342733505821e+01 9.056220717886390048e+01
-5.815857240179202847e+01 -2.324606487181301162e+01 8.410959272972968392e+01
-5.906225288718694344e+01 -3.398132946937297305e+01 8.114348669723221974e+01
-6.035018748781651254e+01 -2.340120621274039081e+01 7.704551444421804263e+01
-5.986829916014906416e+01 -3.187855905932982381e+01 6.984808577170679200e+01
-5.842778266565728984e+01 -1.700721583232044054e+01 6.399764505360758449e+01
-5.723655793830418759e+01 -1.478358827306210088e+01 7.394692137707761503e+01
-5.750344513115283007e+01 -1.390199039500051015e+01 8.631203169376703954e+01
-5.740712532473708052e+01 -1.395700167001393766e+01 8.786803600475627718e+01
-5.605673416595681147e+01 -1.115434266138682062e+01 9.882027122731255986e+01
-5.410046031731413052e+01 -1.157771118488231110e+01 1.028530967845601936e+02
-5.090584613320960727e+01 1.099968909606360512e+00 1.044696492377563573e+02
-4.961555588067459155e+01 7.974986234979724031e-01 1.081225762761744136e+02
-5.033782275826875718e+01 9.022265349301374471e+00 1.050570230585458376e+02
-5.038438453106249426e+01 1.152285723344170165e+01 1.081151862395086027e+02
-4.875717080553091876e+01 1.492671601912253010e+01 1.093517445399238568e+02
-5.148058346540750563e+01 1.638299220790020172e+01 1.042223708105752848e+02
-5.171791077861736596e+01 2.234938578125109387e+01 1.048438212671387646e+02
-5.396924715672264483e+01 2.171642848220214006e+01 9.383139585082358280e+01
-5.261708401932351364e+01 2.245524114733144216e+01 8.716250062566314227e+01
-4.978688149088600312e+01 2.956406371042977099e+01 9.009392555737667863e+01
-5.018720343852116628e+01 2.338443744624971998e+01 7.696820828330942277e+01
-4.845603630835014997e+01 1.915223534496912450e+01 7.427198932689748290e+01
-5.061865572460776264e+01 2.483049178160257142e+01 7.007916497445899040e+01
-4.967959489356863401e+01 3.151671424244482722e+01 6.751193193481435628e+01
-4.627573147063337444e+01 3.245099256243685915e+01 8.525737971325725084e+01
-4.728285029859993926e+01 3.915628204595789441e+01 6.901622561381873311e+01
-5.590127278217919127e+01 1.769123617089270084e+01 7.110458810849058864e+01
-4.844190098624147822e+01 1.327523089706195236e+01 6.231286883516804664e+01
-5.310526876454900957e+01 1.419825222398313969e+01 6.007804836401692228e+01
-5.309990197400024670e+01 4.018617979283042985e+00 5.460196913929121365e+01
-5.706492486415150722e+01 9.035723907971039637e+00 5.509201718677263671e+01
-5.018721605674062403e+01 3.062626214447220718e+00 4.879430076499329516e+01
-5.217481472717906854e+01 2.673498882080259875e+00 5.112521309405019565e+01
-5.574741512234817264e+01 6.815504269617825628e+00 4.725619880743056456e+01
-4.865371051218401988e+01 4.809130607340669883e+00 4.780015783654016559e+01
-4.817360142059419559e+01 1.126255267779730573e+01 4.524982474385433306e+01
-3.993604207009295237e+01 1.068091336846175565e+01 4.662752898654593992e+01
-4.327055060152387966e+01 2.031958641183936365e+01 4.376210469907437073e+01
-3.649929655436473297e+01 1.928777369935604469e+01 4.094214520221157727e+01
-3.918567862491832443e+01 2.585651910169458745e+01 4.329801701750693610e+01
-3.383633028980794677e+01 2.243126210120111708e+01 3.717498648374021286e+01
-3.510828934879998542e+01 2.825404721071100766e+01 4.125619672504808477e+01
-3.534799672652451363e+01 3.296005184254393328e+01 4.382186693830385593e+01
-2.727294901224544788e+01 3.317696116859175248e+01 3.964593832655782535e+01
-3.284475455363757135e+01 4.124364443430418703e+01 4.473019096860639365e+01
-2.411335309805076577e+01 2.822614192029794111e+01 2.905739087846541224e+01
-2.091302329781349556e+01 3.323725053113875560e+01 2.842178169424687439e+01
-2.039358496205660742e+01 2.672010272384093099e+01 1.659853255028201602e+01
-1.467702494429107674e+01 3.435720485794744405e+01 2.003278061412561328e+01
-8.603202394705562028e+00 2.692952385662885462e+01 1.545436130711937039e+01
-1.766846254221717061e+01 1.932376042045746090e+01 1.976748741259302733e+01
-1.364140112450698439e+01 1.730435535410327930e+01 1.682292965387455297e+01
-9.212509573099012528e+00 2.123289260832320835e+01 1.551409178292328761e+01
-4.096870812181876431e+00 2.225863269287518520e+01 1.472023675733385062e+01
-1.589336552382576428e+00 1.817296718402007016e+01 1.462202811007364289e+01
-4.738675428202213880e+00 9.850533076115269182e+00 1.458188497082983304e+01
-1.123939221841229141e+01 1.461031662692108313e+01 1.596156989840937968e+01
-1.164688790834438237e+01 6.557195816989882076e+00 1.589042309279761866e+01
-7.437918562471907080e+00 2.660453792260639716e+00 1.382268143586043152e+01
-1.280814367050743385e+01 -9.926074492096965685e+00 1.428797028597796270e+01
-2.074809143633191866e+01 -9.173631175661654424e+00 1.571883630560932943e+01
-2.414760203549001005e+01 -1.349415963660974427e+01 1.911202934377411111e+01
-1.835832185682779993e+01 -1.573610860093494779e+01 1.720842685142110895e+01
-2.346689515209017429e+01 -1.775462508734556621e+01 1.977828794230231324e+01
-2.694170026383895333e+01 -1.452264752106366075e+01 2.105939053895917823e+01
-2.920765519016381973e+01 -1.982366409198530732e+01 2.269876748329375005e+01
-2.442490945095147481e+01 -2.344835260042987102e+01 2.095704348515641868e+01
-3.143088519001061343e+01 -2.528908323432201399e+01 2.404601040380498489e+01
-3.171057116053893310e+01 -1.748343031311182472e+01 2.385916163990168570e+01
-3.752255974309849762e+01 -1.697400513043422166e+01 2.774080458742332667e+01
-3.810341085202588829e+01 -2.409076675626020858e+01 2.784848091974117779e+01
-4.335750439591814143e+01 -1.995390167678628757e+01 3.149473664647894111e+01
-4.413918304744736076e+01 -2.487400171157013773e+01 3.358382086298001923e+01
-4.213842803940366366e+01 -2.791494944892626506e+01 3.196673384366727078e+01
-4.082562476951480335e+01 -2.644021976304895105e+01 3.040776432196935275e+01
-4.020267432175634781e+01 -3.269384672122646407e+01 3.010141908528180466e+01
-4.128891760890878970e+01 -3.546228624357041781e+01 3.106073384618957789e+01
-3.903509681347109961e+01 -3.225119083395430408e+01 2.914063713364498653e+01
-3.726171390313281506e+01 -2.749780966686005712e+01 2.761514340948156132e+01
-3.125850451122646234e+01 -3.034950721613619606e+01 2.359659910790810500e+01
-3.412240571130128330e+01 -4.041584798147939495e+01 2.552635754296557025e+01
-4.100949230400168233e+01 -4.097564767679598674e+01 3.149476063466909181e+01
-3.897828487275701548e+01 -4.719844255585887538e+01 3.198757169088457886e+01
-4.549669890168704001e+01 -4.224260631025560286e+01 3.726923110510824699e+01
-5.117455907108512747e+01 -4.260038454619059678e+01 4.630661558996416716e+01
-4.749988287554401722e+01 -3.300727205238299433e+01 3.845021472592293321e+01
-4.547253803459584276e+01 -2.720347211304926560e+01 3.580779469175399754e+01
-4.738861785060520049e+01 -2.135936723470970833e+01 3.688023150065760092e+01
-4.872541410133956674e+01 -1.318326759943253279e+01 4.207803708652204477e+01
-4.840665321938541865e+01 -7.835188235483897756e+00 4.706107216599184540e+01
-5.222639201164066947e+01 -1.758116553633175272e+01 4.777057332532785949e+01
-5.329929599100026394e+01 -1.203851290006585373e+01 5.310420837390120141e+01
-5.609447775269947556e+01 -1.443455018396885947e+01 5.824875542566019249e+01
-5.281749140869064263e+01 -8.782751587475964072e+00 5.764885408094005470e+01
-5.269588276953227535e+01 -8.897470781621812819e+00 6.251390477989593819e+01
-5.718663505880041953e+01 -1.548707746595699319e+01 6.307022739942362932e+01
-5.813112943402819610e+01 -1.635714331569662505e+01 7.153229869977599265e+01
-6.018162170735084260e+01 -2.503167621331765247e+01 6.713124163625298024e+01
-5.878466218694394740e+01 -3.179031907891640429e+01 6.353054726214418224e+01
-5.978265752615725148e+01 -3.451428553516761610e+01 7.207498333060584628e+01
-6.019064772270529318e+01 -2.768979047329609955e+01 7.198054058748198258e+01
-5.957153254940476472e+01 -3.353146682666351808e+01 7.676012587383866048e+01
-5.703033275545078595e+01 -2.955322633270478150e+01 8.794205913628843518e+01
-5.804165027733085935e+01 -2.420065376976577909e+01 8.390874682177036448e+01
-5.642159026682710987e+01 -1.951949275529648986e+01 9.025168748748251346e+01
-5.723683276588123192e+01 -1.416262525783553627e+01 8.506484727980569005e+01
-5.696865025994031839e+01 -1.322433907138319853e+01 9.248899831701965013e+01
-5.324640914202272768e+01 -2.678609636218985912e+01 9.643650779738868550e+01
-5.024980977229911616e+01 -4.248760013303049021e+01 9.907229530894846903e+01
-4.730266201580715801e+01 -5.284466975904624775e+01 9.604269472102328109e+01
-4.332651504014847887e+01 -5.828174863927734606e+01 9.617587150124427353e+01
-4.419651480218719541e+01 -6.130266528255783243e+01 8.762512635422967833e+01
-4.998080219450299921e+01 -5.742276688755396208e+01 8.007751809947421862e+01
-4.368233683945295809e+01 -6.317872826072989767e+01 5.816539704670958599e+01
-4.366891934754129068e+01 -5.569428470856330904e+01 4.505746668222082008e+01
-3.185644242113660596e+01 -6.445274804784570222e+01 4.361549305407061183e+01
-2.490141010847580105e+01 -5.880873285264893724e+01 3.193779300257438081e+01
-3.011671606524335232e+01 -4.878906468691006637e+01 2.624134193256941217e+01
-2.922985783581590624e+01 -4.349743848128511559e+01 2.351001211111588418e+01
-3.271853246175180630e+01 -2.336293378416949196e+01 2.473024869559139916e+01
-3.380701397220988724e+01 -1.393261383496817274e+01 2.635559284114924594e+01
-2.420922902665269305e+01 -1.042105774253379025e+01 1.812936798296777852e+01
-1.757159305990039400e+01 -1.253755676169715372e+01 1.582900245702421671e+01
-2.080479427533633441e+01 -8.181631108992775125e+00 1.559547759952511115e+01
-1.160182399804027398e+01 4.667576056011675689e+00 1.553314480972335332e+01
-1.121415185548536897e+01 1.271915587876988951e+01 1.599179780054987532e+01
-7.454334950589185382e+00 1.771641107111907232e+01 1.513767727240724525e+01
-1.685310968082708882e+01 1.760923423782847763e+01 2.129759321245728643e+01
-1.601827182246759662e+01 1.882377045924321735e+01 1.820991486853426977e+01
-1.108799333431437617e+01 2.553562927600902555e+01 1.635557483845900606e+01
-2.009097423740718114e+01 3.290939788723460424e+01 2.609804618915973151e+01
-3.159076507688017443e+01 3.591237196000999177e+01 4.266157307300386492e+01
-3.180986672250848812e+01 4.005292958682825599e+01 4.414605558380981165e+01
-3.352244018519002111e+01 4.571479290321074274e+01 4.471954006747955646e+01
-3.934788000862705815e+01 4.794867351619863882e+01 4.761887527928047348e+01
-4.001306402753424152e+01 4.936383036442950356e+01 4.767137003359857772e+01
-4.373790557739307872e+01 4.822001113128891348e+01 5.147200568465768811e+01
-4.509226643203464846e+01 5.699698965426477315e+01 4.834897571173632969e+01
-3.997267871693107111e+01 5.626472204236576147e+01 4.444933662821426879e+01
-4.859472145265694110e+01 5.557778856716107896e+01 5.477267456426261560e+01
-4.989288020372661947e+01 5.601226034563436684e+01 5.914994631400327307e+01
-4.690482410530174207e+01 4.754009228578773616e+01 6.039356683546270688e+01
-4.686785014751973222e+01 4.561499282110435161e+01 6.384802128085266304e+01
-5.006645085454785260e+01 5.603554071796831693e+01 6.410054587344825450e+01
-4.791473188953867179e+01 5.023122309696788079e+01 6.685153769462795026e+01
-4.421256438364483188e+01 3.838419116773324191e+01 7.504058798424352972e+01
-4.426639118006922047e+01 3.846471409319119061e+01 7.490132468536285160e+01
-4.258404335198081014e+01 4.064517695438635059e+01 7.891584406279389441e+01
-4.443338669495312843e+01 3.526119262930229326e+01 8.375178516411460805e+01
-4.989527859055552028e+01 3.159351287910632777e+01 9.386302450021821642e+01
-5.135454364611641154e+01 2.915430505258177618e+01 1.025781863399822669e+02
-4.802359763848606633e+01 2.799453467849011545e+01 1.089518482587220660e+02
-4.425922001206689060e+01 2.174697731782072907e+01 1.145319238616971234e+02
-4.906937457821926785e+01 1.548013594854185726e+01 1.092874193286540958e+02
-5.182817468973367170e+01 1.605314606007281952e+01 1.031263804266611714e+02
-4.716177891548180412e+01 9.494440153164468654e+00 1.110553742720503578e+02
-5.019064892886203211e+01 3.876047602775344103e+00 1.058863068015912177e+02
-4.697163915368609821e+01 7.369016739703937446e-02 1.111620611313730933e+02
-5.340850317699343464e+01 -7.897885297870729460e+00 1.049392313923381153e+02
-5.556065188907935237e+01 -1.277817314078388478e+01 9.892903073337311071e+01
