-2.798845401296565427e+01 -2.339281361837745976e+02 -1.292786818578904331e+03
-2.407578383892646201e+01 -2.298866777113872217e+02 -1.285956237085301836e+03
-3.288952478407176017e+01 -2.208999991525324447e+02 -1.283585370443915963e+03
-3.753880581211425493e+01 -2.234236849460320400e+02 -1.288427766062965247e+03
-3.736745908433008623e+01 -2.167283229916504297e+02 -1.284228367869187650e+03
-2.709734931042778072e+01 -2.153287657703032494e+02 -1.278184556441849736e+03
-2.019494150697102697e+01 -2.199360467503904886e+02 -1.278141527757975609e+03
-1.565477498415605595e+01 -2.249827767777981933e+02 -1.279988105411275228e+03
-1.172829083332148770e+01 -2.180365449697234226e+02 -1.275128052926646433e+03
-6.591661810977448965e+00 -2.255611544893745588e+02 -1.279314922698118608e+03
-5.702170068325145280e-01 -2.184301583664330906e+02 -1.274919538463280560e+03
1.604510209943548205e+00 -2.249756015932484843e+02 -1.279576049048169807e+03
9.362396787940504339e+00 -2.180522205302692385e+02 -1.277877910074766078e+03
9.122801612199346266e+00 -2.250103908942464841e+02 -1.282046288020639849e+03
1.617779689980968527e+01 -2.225570840006035951e+02 -1.283425985348690801e+03
1.752520985432381906e+01 -2.140549804091850774e+02 -1.279352026618334548e+03
2.560815720237697235e+01 -2.139628691833774212e+02 -1.283753527676177328e+03
2.498160721935969519e+01 -2.220272746966269892e+02 -1.287746354469652488e+03
3.071478688771873067e+01 -2.132966800167852455e+02 -1.287093468045759892e+03
3.568199316705629087e+01 -2.131936037274045646e+02 -1.292128690260330814e+03
3.540536634996209386e+01 -2.216745352265224369e+02 -1.300636697902209562e+03
2.515376078984628805e+01 -2.295726191136226930e+02 -1.296403237201800266e+03
2.141237490919930764e+01 -2.269263747789415220e+02 -1.289361230843681142e+03
1.428932884761292854e+01 -2.337069631863230939e+02 -1.293294317136366772e+03
1.094626883183225630e+01 -2.300541741567350584e+02 -1.287113698323354583e+03
5.483461957789316443e+00 -2.355216519922203418e+02 -1.291879532755506261e+03
1.271218224584679035e+00 -2.277436532566561880e+02 -1.281625701631394350e+03
-4.555005806660666678e+00 -2.347242642467231803e+02 -1.288357901035725490e+03
-1.262062929370394926e+01 -2.370454926406258949e+02 -1.292273447583226471e+03
-1.471628925084208817e+01 -2.304839179667893916e+02 -1.284074921075954535e+03
-2.061219150518289922e+01 -2.360378755369222006e+02 -1.292640984898081570e+03
-2.685576392604577478e+01 -2.292900338590770843e+02 -1.286797966153468678e+03
-2.923843468761669584e+01 -2.338062966459586960e+02 -1.294544888769773024e+03
-3.901545411648739758e+01 -2.264866749975988682e+02 -1.293427773756193346e+03
-4.119896942460260192e+01 -2.179418389434003132e+02 -1.288341087660185167e+03
-4.557033666890276180e+01 -2.203117009082082518e+02 -1.296079411956671947e+03
-4.716057461452557931e+01 -2.241494104544724735e+02 -1.308141117117017075e+03
-4.764963562881668935e+01 -2.295224230133799779e+02 -1.320211088819250790e+03
-4.095118547780540297e+01 -2.338467323025113558e+02 -1.317616104148928571e+03
-4.223905047457281370e+01 -2.295557851071828566e+02 -1.307363525266248871e+03
-3.695711438741842159e+01 -2.353787091738512913e+02 -1.312914566525070313e+03
-3.438940033231120452e+01 -2.342813572465948653e+02 -1.302095001253107057e+03
-3.111981009438992629e+01 -2.397247457235089314e+02 -1.311585547170650443e+03
-2.412775382363538057e+01 -2.394447151411166033e+02 -1.302929136879927455e+03
-1.830024143346467014e+01 -2.442035372171223742e+02 -1.317101409299470561e+03
-2.721147691322610029e+01 -2.403333111864613727e+02 -1.320412431487548702e+03
-3.888360442588061261e+01 -2.365818573787445587e+02 -1.322265113433569013e+03
-4.030483564662505813e+01 -2.359477482749243507e+02 -1.322372167732582284e+03
-5.010428283167419039e+01 -2.317489240916721087e+02 -1.326368493609700181e+03
-5.318259519350498721e+01 -2.284942623225371392e+02 -1.326816935383279088e+03
-5.369935274566676497e+01 -2.285226113231783245e+02 -1.339980313831225430e+03
-5.665852299227760369e+01 -2.260297840500552411e+02 -1.340339948083929357e+03
-5.413075661975315001e+01 -2.299694095671409002e+02 -1.347800231028799999e+03
-5.703438544268332322e+01 -2.296460387055452088e+02 -1.350459528070431361e+03
-5.765241249859476369e+01 -2.286870501496815393e+02 -1.354262361103792955e+03
-5.382963731502885452e+01 -2.332882628722722416e+02 -1.354514200510340743e+03
-5.455681802477766240e+01 -2.349146773275514022e+02 -1.360247119612395863e+03
-4.504155741868151352e+01 -2.405354531822999320e+02 -1.358100177981038769e+03
-3.833263024135926145e+01 -2.418031028538928240e+02 -1.358581544024670393e+03
-4.015032012771620629e+01 -2.401918053087496219e+02 -1.366407039562584487e+03
-2.794698474323966053e+01 -2.433599777608327486e+02 -1.359218591802929041e+03
-2.476947848995228441e+01 -2.415727946565802142e+02 -1.355360159286766930e+03
-2.166889697042110896e+01 -2.464995774927523939e+02 -1.359900258413007123e+03
-1.900506743427251166e+01 -2.483555150317302491e+02 -1.366352978736549858e+03
-3.441612330597045144e+01 -2.394762224668030228e+02 -1.369672255691622922e+03
-1.964602324482074636e+01 -2.477670166627447088e+02 -1.374453171676801503e+03
-2.441840049536681789e+01 -2.489537667363274238e+02 -1.351755094708155184e+03
-1.351448660212020769e+01 -2.440514850804025286e+02 -1.348671273324856656e+03
-1.307894508411032319e+01 -2.492613032041309111e+02 -1.348159913717784093e+03
-7.847862965032057048e+00 -2.483568673387536307e+02 -1.337891992727502611e+03
-9.757791160465323799e+00 -2.531217058593995262e+02 -1.341736650536514617e+03
-1.376359221001685285e+00 -2.474647046864106130e+02 -1.337220906633456480e+03
-4.254562912732971824e+00 -2.483483165525530296e+02 -1.336535126479041310e+03
-1.938574754999855543e+00 -2.540136150750819581e+02 -1.339260845699337096e+03
7.680523413751672024e-02 -2.469018036894903219e+02 -1.339211306730362139e+03
2.565272295393072000e+00 -2.491012357736131548e+02 -1.345322885105488240e+03
4.189478055065698925e+00 -2.410636905927134990e+02 -1.347012139507515258e+03
5.593418734682686022e+00 -2.476691203085777602e+02 -1.355174912955764739e+03
1.063215234509872431e+01 -2.422640315714320991e+02 -1.355687621211601254e+03
7.411687810980211566e+00 -2.456633047348046546e+02 -1.361517608085094025e+03
1.506383135432197662e+01 -2.420151064755266930e+02 -1.359073274903976653e+03
1.073606196815482861e+01 -2.433487588511532635e+02 -1.364700953536785846e+03
8.202128862006496490e+00 -2.439685303477953369e+02 -1.369389414816403360e+03
1.495665516623247271e+01 -2.381953022284255326e+02 -1.371322815059820641e+03
8.149653675204859837e+00 -2.436636996785769327e+02 -1.378085017427164985e+03
2.602979021348999566e+01 -2.376287690015381031e+02 -1.366457045340772538e+03
2.770183214501325608e+01 -2.363337996947702777e+02 -1.372050313584719788e+03
3.901468261755056233e+01 -2.381371793533705556e+02 -1.364887947492425610e+03
3.773969526140791686e+01 -2.339022035032291740e+02 -1.374011424570705685e+03
4.424396818546227905e+01 -2.279833710939461753e+02 -1.368037686594178240e+03
3.708839899437028009e+01 -2.325868331365317090e+02 -1.358751373947882485e+03
4.128550795621224268e+01 -2.294229934903509047e+02 -1.357593774736524665e+03
4.403224578850459636e+01 -2.269586728320253144e+02 -1.362404605941001364e+03
4.656969123904411845e+01 -2.229096269639821344e+02 -1.364644852936072766e+03
4.758897011207866967e+01 -2.195751207445081263e+02 -1.361353626036573587e+03
4.660156435608796244e+01 -2.201532529702367356e+02 -1.352529021268687075e+03
4.296708825117418939e+01 -2.268237298931337591e+02 -1.355547913416535266e+03
4.297352255991035008e+01 -2.250202657773733392e+02 -1.347688438550652563e+03
4.643398869663130313e+01 -2.208812553402303820e+02 -1.344847779535661857e+03
4.423423053681796091e+01 -2.221216883815123140e+02 -1.331390480564977452e+03
4.008558670120936540e+01 -2.289769817758838997e+02 -1.330186310378933285e+03
3.575608412995983088e+01 -2.296955103918721193e+02 -1.325445369374928987e+03
3.960349886379596995e+01 -2.245301266200207237e+02 -1.324619528621552490e+03
3.541723418691257308e+01 -2.276945197230681401e+02 -1.321580133897291034e+03
3.295874989717819403e+01 -2.312614156616147341e+02 -1.323902693213531393e+03
3.068034960190757587e+01 -2.312936464719879268e+02 -1.318359161988011920e+03
3.403546021787265374e+01 -2.266012261534521599e+02 -1.315956860927835805e+03
2.869205594581299579e+01 -2.313426378622244215e+02 -1.312643139795846764e+03
2.868705815407525250e+01 -2.337849108776571825e+02 -1.320064502997391855e+03
2.299898024607841052e+01 -2.378217139522473076e+02 -1.319389323079050428e+03
2.276719884844843733e+01 -2.363680725357536403e+02 -1.312401441979741548e+03
1.745854447446885160e+01 -2.409721233667834213e+02 -1.315340019384104153e+03
1.527926069246203156e+01 -2.396195147747661451e+02 -1.310585668647730699e+03
1.752989539634859284e+01 -2.375451829204504577e+02 -1.308036718871959238e+03
1.943644613142101463e+01 -2.372999944816424147e+02 -1.309659559888661533e+03
2.000789083656923140e+01 -2.351407103507793011e+02 -1.303777323257276521e+03
1.875577505008761392e+01 -2.350348836064033264e+02 -1.300916296617122043e+03
2.131425040636349877e+01 -2.345401887602847069e+02 -1.304421591776403602e+03
2.331795724188283714e+01 -2.347627113957518645e+02 -1.309320805301330438e+03
2.922594265223923315e+01 -2.299626014581278639e+02 -1.307780009014643383e+03
2.651435541721446754e+01 -2.291347381900693279e+02 -1.297522375214310841e+03
1.850560227632085741e+01 -2.331328396958982694e+02 -1.295721755771840662e+03
1.882602905194795540e+01 -2.294420973220024393e+02 -1.290302568574137240e+03
1.153258862141858998e+01 -2.348465504137178925e+02 -1.293844259410363748e+03
1.077153285945684047e+00 -2.367620220948390681e+02 -1.292817000980839794e+03
9.624748588625585910e+00 -2.387601097823435623e+02 -1.302314387312461804e+03
1.275216154944995850e+01 -2.394227095277410342e+02 -1.308192895135606477e+03
1.101185615620043734e+01 -2.423710731822327489e+02 -1.313413386807713778e+03
5.592066673630895934e+00 -2.440221146588820034e+02 -1.321385385075238219e+03
9.868693677402191611e-01 -2.434873492284711176e+02 -1.327045807647311676e+03
-9.237031632432888273e-01 -2.440239112857533712e+02 -1.316743396102079259e+03
-6.350079411693521081e+00 -2.446736239824280972e+02 -1.322261738085740262e+03
-1.212486820619117367e+01 -2.447737246698420392e+02 -1.319680615394763663e+03
-1.046583880573142977e+01 -2.435721723855084520e+02 -1.325913210524720171e+03
-1.497346375914246863e+01 -2.417666122140907987e+02 -1.326256630391371800e+03
-1.701032973283295036e+01 -2.438190238981124764e+02 -1.318804244832417226e+03
-2.525171442718103521e+01 -2.415353462176827009e+02 -1.318457647845068323e+03
-2.176759989263641870e+01 -2.425218276057919411e+02 -1.309199724578355699e+03
-1.783556169176311101e+01 -2.406563291716541073e+02 -1.302745676202242748e+03
-2.615362405216243502e+01 -2.378874384135068567e+02 -1.300608748918066567e+03
-2.628016178007317905e+01 -2.401461264166963474e+02 -1.307060990775698656e+03
-3.047274024688945104e+01 -2.363619988556942246e+02 -1.302015637851817928e+03
-4.007905644374415743e+01 -2.313340512602341903e+02 -1.307470741646412534e+03
-3.671802081627087233e+01 -2.350822034699958181e+02 -1.312008935000749261e+03
-4.212936873804272153e+01 -2.327301405802069496e+02 -1.317482130868044578e+03
-3.761994136520313958e+01 -2.366979108453321601e+02 -1.321974994648515121e+03
-4.448107078985878360e+01 -2.341716690216442203e+02 -1.323591573354894535e+03
-4.671980825920342539e+01 -2.257783244285772639e+02 -1.311848533206038155e+03
-4.796515475786068095e+01 -2.179033931648647808e+02 -1.297745385545160161e+03
-4.398295859507603467e+01 -2.134679828068970835e+02 -1.288279536426532331e+03
-4.264782886035407472e+01 -2.083654264130908587e+02 -1.284087799982506567e+03
-3.492340806206821213e+01 -2.112509400604402003e+02 -1.280214143590574167e+03
-2.994354188950499207e+01 -2.200925790025976596e+02 -1.281796653078569534e+03
-7.159974737928003208e+00 -2.203592769992793876e+02 -1.275984532448591153e+03
5.030749959489483558e+00 -2.268723870052021141e+02 -1.282050877572095942e+03
1.063964158180058917e+01 -2.143571280697703969e+02 -1.276552404357198611e+03
2.396115339807671063e+01 -2.136371030176320005e+02 -1.282766496997286367e+03
2.734608217857587675e+01 -2.230064904808895676e+02 -1.290563904058705930e+03
3.015950869205644480e+01 -2.245855405435625869e+02 -1.295647133363541570e+03
2.757744182739843808e+01 -2.327912052400927507e+02 -1.314222873051652641e+03
2.557464284296946033e+01 -2.357832800614780524e+02 -1.323155608042998438e+03
3.662177912135689439e+01 -2.309245547849077695e+02 -1.328300785027553275e+03
4.113849681683576875e+01 -2.251662560827063260e+02 -1.327780479161964422e+03
4.017068190434105190e+01 -2.293404803538622900e+02 -1.331115355213589282e+03
4.334333024429330550e+01 -2.245871435756793915e+02 -1.345851052145015728e+03
4.296736575053472507e+01 -2.262753993624318127e+02 -1.353737561702246012e+03
4.504144067494013370e+01 -2.245483200245045339e+02 -1.359443147970181599e+03
3.596239834308447314e+01 -2.308628292918148190e+02 -1.357445404057348696e+03
3.913323035635444569e+01 -2.314997168900320332e+02 -1.358561651596772435e+03
4.253836359452444071e+01 -2.295295892733275593e+02 -1.366132578653500104e+03
3.016943398505562612e+01 -2.363004885919923197e+02 -1.371745633029246392e+03
1.058299563919430142e+01 -2.417913685257715599e+02 -1.373100304923768817e+03
9.073767730024954403e+00 -2.426085523822296750e+02 -1.377156208396478178e+03
7.873995058805512315e+00 -2.454950127884129358e+02 -1.382210650046395585e+03
3.082296901708659220e+00 -2.503499489567465162e+02 -1.383105825991469828e+03
2.783726061916496519e+00 -2.513157375837807592e+02 -1.384299979316990402e+03
-2.074801822343367519e+00 -2.530529453614886393e+02 -1.382566654680143984e+03
2.779276447664571492e-01 -2.577311101411658569e+02 -1.390389850950077971e+03
5.740801146726212778e+00 -2.542623850287623668e+02 -1.390670097994622438e+03
-6.953389754241747767e+00 -2.582956239740737487e+02 -1.388676782751691690e+03
-1.151141014428537090e+01 -2.580833514000025843e+02 -1.389139254716885034e+03
-1.153238225238263936e+01 -2.526623304197465529e+02 -1.381868436703392945e+03
-1.473131245300071868e+01 -2.509223420445200077e+02 -1.380325738883532267e+03
-1.620468098231354048e+01 -2.565515535237136646e+02 -1.389546573819862488e+03
-1.795882312482641652e+01 -2.520936571863325355e+02 -1.384757200255495491e+03
-2.419084183491147400e+01 -2.427340132032661870e+02 -1.375026950426880830e+03
-2.408038017585345614e+01 -2.428520164065447204e+02 -1.375078418842894052e+03
-2.726529368435890177e+01 -2.405594172663064398e+02 -1.377959632729611258e+03
-3.238650500914486230e+01 -2.391004589228306543e+02 -1.372721472798177729e+03
-4.373602623654895893e+01 -2.395523656239835759e+02 -1.368658783173880693e+03
-5.237956628021385797e+01 -2.372174310357972900e+02 -1.366691416609385897e+03
-5.715517035848703387e+01 -2.317248592614514848e+02 -1.366989905925783887e+03
-6.098246554773513850e+01 -2.247278324661942293e+02 -1.362436535395630699e+03
-5.770816120979620933e+01 -2.291406028594198006e+02 -1.354708527628145248e+03
-5.292347229037037692e+01 -2.338860347770742578e+02 -1.354011859231913149e+03
-5.862684503788178603e+01 -2.251892332427214285e+02 -1.349596205433152136e+03
-5.480121943891645486e+01 -2.281510612713910291e+02 -1.342959051643498924e+03
-5.856166743044573053e+01 -2.224148487720433423e+02 -1.340590839910439854e+03
-5.492841616361697987e+01 -2.281607442397611578e+02 -1.330717288658728421e+03
-5.001409108041291773e+01 -2.308231561200571775e+02 -1.324943863555213738e+03
