-0.20831789076328278 -0.03648986667394638 0.5874426364898682
-0.1691911816596985 0.0039247130043804646 0.655749499797821
-0.257328599691391 0.09379149973392487 0.6794580221176147
-0.3038214147090912 0.06855453550815582 0.6310338973999023
-0.30210793018341064 0.13550826907157898 0.6730273365974426
-0.19940683245658875 0.14950378239154816 0.7334655523300171
-0.1303827464580536 0.10343093425035477 0.7338964939117432
-0.08498108386993408 0.05296371504664421 0.7154296636581421
-0.04571624472737312 0.12242599576711655 0.7640307545661926
0.005650038365274668 0.047179870307445526 0.7221618294715881
0.06586448848247528 0.1184898316860199 0.7661157250404358
0.08761175721883774 0.0530354306101799 0.7195507884025574
0.16519062221050262 0.12226928770542145 0.7365319728851318
0.16279467940330505 0.05268752947449684 0.6948485970497131
0.23334462940692902 0.0772206112742424 0.6810510158538818
0.24681875109672546 0.16224166750907898 0.7217907309532166
0.32764822244644165 0.16316267848014832 0.6777758598327637
0.3213827311992645 0.08251876384019852 0.637847900390625
0.37871450185775757 0.16982467472553253 0.6443762183189392
0.4283865690231323 0.17085540294647217 0.594024658203125
0.42562028765678406 0.08604614436626434 0.5089440941810608
0.32310423254966736 0.0070652770809829235 0.5512793064117432
0.28569039702415466 0.0335276797413826 0.6216992139816284
0.21445995569229126 -0.0342782586812973 0.5823681354522705
0.18102934956550598 0.002249755896627903 0.6441748142242432
0.12640127539634705 -0.0524250790476799 0.5965160727500916
0.08427883684635162 0.025354918092489243 0.699053943157196
0.02601659670472145 -0.044451139867305756 0.631732165813446
-0.05463963374495506 -0.06766342371702194 0.5925768613815308
-0.07559623569250107 -0.0020477294456213713 0.6745617389678955
-0.13455526530742645 -0.05758727714419365 0.5889013409614563
-0.1969909816980362 0.009891051799058914 0.6473315358161926
-0.2208176702260971 -0.035271454602479935 0.5698620676994324
-0.31858786940574646 0.03792465105652809 0.5810339450836182
-0.340423047542572 0.1233731061220169 0.6319006085395813
-0.3841366767883301 0.09967437386512756 0.554516613483429
-0.40003907680511475 0.061297301203012466 0.4339001476764679
-0.4049296975135803 0.007567138411104679 0.3132006824016571
-0.33794519305229187 -0.035675812512636185 0.3391503691673279
-0.35082384943962097 0.007233581505715847 0.4416760206222534
-0.29800447821617126 -0.050995633006095886 0.3861657679080963
-0.27232733368873596 -0.040022123605012894 0.49436154961586
-0.23963144421577454 -0.0944560244679451 0.39945554733276367
-0.16971087455749512 -0.09165573120117188 0.4860205054283142
-0.11143575608730316 -0.1392439305782318 0.3442968726158142
-0.20054811239242554 -0.10054168105125427 0.3111865222454071
-0.31726938486099243 -0.06302718818187714 0.2926599085330963
-0.3314816951751709 -0.056686095893383026 0.2915893495082855
-0.42947614192962646 -0.014697723090648651 0.25162598490715027
-0.4602592885494232 0.017848815768957138 0.24714232981204987
-0.46542686223983765 0.017565308138728142 0.1155078113079071
-0.4950185716152191 0.04249358922243118 0.11191161721944809
-0.4697408974170685 0.003097381442785263 0.037309568375349045
-0.4987771809101105 0.0063310242258012295 0.010716552846133709
-0.5049574375152588 0.015920868143439293 -0.027312010526657104
-0.46672970056533813 -0.030091246590018272 -0.029830321669578552
-0.47400152683258057 -0.04635528475046158 -0.0871594250202179
-0.3788489103317261 -0.10256301611661911 -0.06569091975688934
-0.3117596507072449 -0.11523956060409546 -0.07050415128469467
-0.32993656396865845 -0.09912658482789993 -0.14875854551792145
-0.207903191447258 -0.13080841302871704 -0.0768750011920929
-0.17612811923027039 -0.11293654888868332 -0.03828979283571243
-0.14512231945991516 -0.16220428049564362 -0.08369140326976776
-0.1184840202331543 -0.18076369166374207 -0.14821898937225342
-0.2725945711135864 -0.09197082370519638 -0.18141113221645355
-0.12489356845617294 -0.17487868666648865 -0.2292199581861496
-0.1726173311471939 -0.18674620985984802 -0.0022399902809411287
-0.06357820332050323 -0.1377233862876892 0.028598632663488388
-0.05922279134392738 -0.18982161581516266 0.03371215611696243
-0.006911973934620619 -0.18077728152275085 0.13639159500598907
-0.026011256501078606 -0.22842559218406677 0.09794433414936066
0.057803068310022354 -0.1718556135892868 0.1431017965078354
0.02902102842926979 -0.1806916743516922 0.1499597132205963
0.05218090862035751 -0.2373446673154831 0.12270263582468033
0.07233470678329468 -0.16622665524482727 0.1231982409954071
0.09721937775611877 -0.18822097778320312 0.06208251789212227
0.113461434841156 -0.10784545540809631 0.04519042745232582
0.12750083208084106 -0.17389968037605286 -0.03643798828125
0.1778881847858429 -0.11984893679618835 -0.04156494140625
0.14568352699279785 -0.1538415551185608 -0.09986449778079987
0.22220496833324432 -0.11735961586236954 -0.07542113959789276
0.1789272576570511 -0.130696102976799 -0.13169799745082855
0.1535879373550415 -0.13689391314983368 -0.17858275771141052
0.22113320231437683 -0.07916152477264404 -0.19791747629642487
0.15306319296360016 -0.1338455229997635 -0.2655383348464966
0.33186453580856323 -0.0734962448477745 -0.1492590308189392
0.34858497977256775 -0.060546569526195526 -0.20519164204597473
0.4617134630680084 -0.07858031988143921 -0.13356810808181763
0.44896361231803894 -0.03623061999678612 -0.22480346262454987
0.5140063166618347 0.022957762703299522 -0.1650659143924713
0.4424506425857544 -0.02307693473994732 -0.07220214605331421
0.4844217300415039 0.008561553433537483 -0.06062621995806694
0.5118891000747681 0.03320464864373207 -0.1087353527545929
0.5372635722160339 0.07369522005319595 -0.1311376988887787
0.5474563241004944 0.10704024881124496 -0.09822509437799454
0.537582278251648 0.10125884413719177 -0.009979248046875
0.5012375116348267 0.0345541387796402 -0.040168456733226776
0.5013018846511841 0.0525888055562973 0.038426510989665985
0.5359065532684326 0.0939788818359375 0.06683349609375
0.5139089226722717 0.08157455176115036 0.20140624046325684
0.4724225103855133 0.013021697290241718 0.21344847977161407
0.4291274845600128 0.005836334079504013 0.2608581483364105
0.4676016569137573 0.057490233331918716 0.26911619305610657
0.42573896050453186 0.025846252217888832 0.29951047897338867
0.40115416049957275 -0.009822692722082138 0.27628418803215027
0.37837013602256775 -0.010144958272576332 0.3317199647426605
0.41192126274108887 0.03677917271852493 0.3557421863079071
0.35848724842071533 -0.01063491776585579 0.3888793885707855
0.3584372103214264 -0.0350576788187027 0.314666748046875
0.30155643820762634 -0.07542572170495987 0.3214184641838074
0.2992386221885681 -0.06088928133249283 0.39129638671875
0.2461520880460739 -0.10692977905273438 0.3619116246700287
0.22435925900936127 -0.09340377897024155 0.409454345703125
0.24686561524868011 -0.07266037166118622 0.434943825006485
0.265931099653244 -0.07020843029022217 0.41871580481529236
0.27164554595947266 -0.0486157201230526 0.4775378406047821
0.25912439823150635 -0.047557372599840164 0.5061486959457397
0.2847091555595398 -0.042610473930835724 0.4710949659347534
0.30474621057510376 -0.044835660606622696 0.42210325598716736
0.36382606625556946 0.0031654357444494963 0.43751096725463867
0.3367101848125458 0.011444091796875 0.540087878704071
0.25662267208099365 -0.02853698655962944 0.558093249797821
0.2598269283771515 0.008370514027774334 0.6122851371765137
0.1868925392627716 -0.04567413404583931 0.5768688917160034
0.08233819156885147 -0.0648287981748581 0.5871410965919495
0.16781413555145264 -0.08480972051620483 0.49216794967651367
0.19908829033374786 -0.09143570065498352 0.4333825707435608
0.181685209274292 -0.12091933935880661 0.38117796182632446
0.12748731672763824 -0.13742965459823608 0.3014575242996216
0.08143535256385803 -0.13208205997943878 0.24485351145267487
0.062329623848199844 -0.13744765520095825 0.34787717461586
0.008065862581133842 -0.1439448446035385 0.292694091796875
-0.049682024866342545 -0.14494583010673523 0.3185046315193176
-0.033091723918914795 -0.13293029367923737 0.25617918372154236
-0.07816798239946365 -0.11487472057342529 0.2527453601360321
-0.09853664040565491 -0.13539886474609375 0.3272692859172821
-0.18095047771930695 -0.11256194859743118 0.33073484897613525
-0.14610932767391205 -0.12242675572633743 0.4233142137527466
-0.10678895562887192 -0.10377182066440582 0.48785400390625
-0.18996956944465637 -0.07608291506767273 0.5092236399650574
-0.19123494625091553 -0.09866988658905029 0.4447009265422821
-0.23316073417663574 -0.0608285516500473 0.49515500664711
-0.3292239010334015 -0.010549010708928108 0.44060423970222473
-0.295613557100296 -0.0480305477976799 0.39522215723991394
-0.34972700476646423 -0.024509886279702187 0.3404895067214966
-0.3046327531337738 -0.06418762356042862 0.2955615222454071
-0.373244047164917 -0.03892532363533974 0.2793957591056824
-0.3956314027309418 0.04500823840498924 0.3968261778354645
-0.408084899187088 0.12375747412443161 0.5378576517105103
-0.36826291680336 0.16811156272888184 0.6325158476829529
-0.35491159558296204 0.21913711726665497 0.6744335889816284
-0.27766743302345276 0.1902819722890854 0.7131701707839966
-0.22786876559257507 0.10186568647623062 0.697344958782196
-3.308773011667654e-05 0.0991986095905304 0.7554662823677063
0.12187416106462479 0.034067533910274506 0.6948022246360779
0.17796306312084198 0.1592201143503189 0.7497875690460205
0.31117817759513855 0.16642042994499207 0.6876464486122131
0.34502744674682617 0.07272659242153168 0.6096715927124023
0.3731617331504822 0.05693603307008743 0.5588403344154358
0.34734106063842773 -0.02512054331600666 0.3730822801589966
0.32731306552886963 -0.0550413504242897 0.2837548851966858
0.43778446316719055 -0.006454162299633026 0.2323034554719925
0.4829516112804413 0.051128845661878586 0.23750609159469604
0.47327345609664917 0.009386596269905567 0.20415771007537842
0.5049999356269836 0.05692001059651375 0.056800536811351776
0.5012403130531311 0.040037382394075394 -0.022064208984375
0.5219810605049133 0.057308197021484375 -0.07911986857652664
0.4311906397342682 -0.005836791824549437 -0.05914306640625
0.46289896965026855 -0.012205657549202442 -0.07030517607927322
0.49695029854774475 0.007495574653148651 -0.14601440727710724
0.3732609748840332 -0.060213468968868256 -0.2021447718143463
0.17739661037921906 -0.1151222214102745 -0.21569213271141052
0.1623043417930603 -0.12329406291246414 -0.2562512159347534
0.1503065973520279 -0.15215866267681122 -0.3067956566810608
0.1023896187543869 -0.20070800185203552 -0.31574705243110657
0.09940391033887863 -0.2103659063577652 -0.32768797874450684
0.050818637013435364 -0.22773803770542145 -0.31035521626472473
0.07434593141078949 -0.2745196521282196 -0.38858762383461
0.12897466123104095 -0.23983244597911835 -0.3913891613483429
0.002032761462032795 -0.28016477823257446 -0.3714562952518463
-0.04354744032025337 -0.2780419886112213 -0.37608152627944946
-0.043757159262895584 -0.22383178770542145 -0.3033728003501892
-0.07574646919965744 -0.2064320296049118 -0.28794553875923157
-0.09048015624284744 -0.26272398233413696 -0.3801550269126892
-0.1080215647816658 -0.21814513206481934 -0.33226072788238525
-0.17034175992012024 -0.12454864382743835 -0.2349584847688675
-0.1692371368408203 -0.1257287561893463 -0.2354724109172821
-0.20108626782894135 -0.10280273109674454 -0.2642846703529358
-0.25229838490486145 -0.08821319043636322 -0.21190306544303894
-0.3657936155796051 -0.09273223578929901 -0.17127685248851776
-0.45222899317741394 -0.0693829357624054 -0.15160277485847473
-0.4999850392341614 -0.014457091689109802 -0.15458740293979645
-0.5382579565048218 0.05551315099000931 -0.10905395448207855
-0.505514919757843 0.01138534490019083 -0.031773682683706284
-0.4576680660247803 -0.0360688790678978 -0.024807129055261612
-0.514701783657074 0.050899047404527664 0.019349364563822746
-0.4764455258846283 0.021280821412801743 0.08572021126747131
-0.5140500068664551 0.07864288240671158 0.10940307378768921
-0.47771748900413513 0.021183928474783897 0.20813842117786407
-0.42857423424720764 -0.005440063308924437 0.2658728063106537
