0.06539687514305115 -0.06449005007743835 0.6010058522224426
0.06763395667076111 -0.06408905237913132 0.6017065048217773
0.0741008073091507 -0.06210189685225487 0.6034472584724426
0.08131617307662964 -0.060455322265625 0.6043127179145813
0.09171050786972046 -0.05930221453309059 0.6047448515892029
0.09589091688394547 -0.058134764432907104 0.6047912240028381
0.10719746351242065 -0.0563630647957325 0.6045202612876892
0.10845879465341568 -0.054911497980356216 0.605010986328125
0.12085231393575668 -0.053392790257930756 0.6045361161231995
0.1282709538936615 -0.052136991173028946 0.6035363674163818
0.1367017775774002 -0.049211882054805756 0.6035680770874023
0.14685578644275665 -0.04834594577550888 0.6023535132408142
0.15577499568462372 -0.04591918736696243 0.6019860506057739
0.16778694093227386 -0.044270627200603485 0.5998034477233887
0.17646436393260956 -0.04150039702653885 0.5988793969154358
0.19044514000415802 -0.03939925879240036 0.5957067608833313
0.20356416702270508 -0.0367930606007576 0.5916589498519897
0.21390026807785034 -0.036049194633960724 0.5881396532058716
0.21904326975345612 -0.03455154225230217 0.5848901271820068
0.22435061633586884 -0.0343363955616951 0.5818554759025574
0.2264377921819687 -0.03424728289246559 0.5807238817214966
0.2297327220439911 -0.034750670194625854 0.5778967142105103
0.23118506371974945 -0.034965209662914276 0.5759069919586182
0.23377324640750885 -0.03541122376918793 0.5734289288520813
0.23655962944030762 -0.03588775545358658 0.5697888135910034
0.2379203885793686 -0.036872100085020065 0.5663659572601318
0.23792725801467896 -0.037494659423828125 0.5634655356407166
0.23941710591316223 -0.0384133905172348 0.5610632300376892
0.2410905361175537 -0.040273893624544144 0.5572436451911926
0.23940369486808777 -0.040689848363399506 0.5546130537986755
0.23907607793807983 -0.04187225177884102 0.5510839819908142
0.23951713740825653 -0.04279693588614464 0.549029529094696
0.2383410930633545 -0.043925169855356216 0.5452026128768921
0.23771776258945465 -0.0450604222714901 0.541302502155304
0.23796764016151428 -0.0457318089902401 0.5390282869338989
0.23832343518733978 -0.047582242637872696 0.5315197706222534
0.23640626668930054 -0.048321835696697235 0.5239233374595642
0.23594142496585846 -0.048319701105356216 0.5239367485046387
0.2353019118309021 -0.048992156982421875 0.5237756371498108
0.23260624706745148 -0.04947982728481293 0.5239880084991455
0.2311566174030304 -0.05011184513568878 0.5241503715515137
0.22886653244495392 -0.051743924617767334 0.524456799030304
0.22681185603141785 -0.05226150527596474 0.5247277617454529
0.22445696592330933 -0.0536346435546875 0.5250695943832397
0.22233949601650238 -0.055331114679574966 0.5252233743667603
0.22254523634910583 -0.060054779052734375 0.5234997272491455
0.2209538370370865 -0.06573882699012756 0.5113793611526489
0.21929015219211578 -0.06815200299024582 0.50384521484375
0.21832671761512756 -0.06992172449827194 0.4983569085597992
0.21756774187088013 -0.07075408846139908 0.4963158965110779
0.21681679785251617 -0.07266586273908615 0.49241575598716736
0.21268396079540253 -0.07469192147254944 0.4881579577922821
0.21103112399578094 -0.07652053982019424 0.48531004786491394
0.20637229084968567 -0.07805374264717102 0.4820922613143921
0.2030029594898224 -0.07949859648942947 0.4798571765422821
0.19929228723049164 -0.0811433419585228 0.4772888123989105
0.1957375854253769 -0.08301162719726562 0.4734277129173279
0.19434700906276703 -0.08443161100149155 0.4685424566268921
0.19713351130485535 -0.08619582653045654 0.4632605016231537
0.1981043964624405 -0.0860690325498581 0.4588061273097992
0.2004670351743698 -0.08606567233800888 0.4577893018722534
0.20543837547302246 -0.08516693115234375 0.45460447669029236
0.2106778621673584 -0.08461761474609375 0.4517565965652466
0.21735377609729767 -0.08292541652917862 0.4490393102169037
0.22438132762908936 -0.0808604434132576 0.4477197229862213
0.23133163154125214 -0.07850585877895355 0.44669675827026367
0.23655350506305695 -0.07587096840143204 0.44718503952026367
0.24269859492778778 -0.07178802043199539 0.4470263719558716
0.2452503889799118 -0.07188476622104645 0.4474218785762787
0.24891363084316254 -0.07041961699724197 0.44759154319763184
0.2555014491081238 -0.06830550730228424 0.4451342821121216
0.26116880774497986 -0.06572158634662628 0.4437951445579529
0.2643364667892456 -0.06335769593715668 0.4438183605670929
0.27089226245880127 -0.06112533435225487 0.4436877369880676
0.27354317903518677 -0.05878951773047447 0.4463183581829071
0.2765319049358368 -0.057138364762067795 0.4479382336139679
0.2791459560394287 -0.05455062910914421 0.4513915777206421
0.2823759913444519 -0.05200744420289993 0.4545690715312958
0.28733620047569275 -0.04918563738465309 0.4579809606075287
0.28981655836105347 -0.04622497409582138 0.4607568383216858
0.29253748059272766 -0.043801724910736084 0.4642895460128784
0.2961149513721466 -0.04070983827114105 0.4670056104660034
0.2999683916568756 -0.03772857412695885 0.4689123332500458
0.30415472388267517 -0.03512939438223839 0.4697888195514679
0.3085520267486572 -0.0319090262055397 0.4720080494880676
0.31184643507003784 -0.02915801852941513 0.472442626953125
0.31764549016952515 -0.02663482539355755 0.47121337056159973
0.32058700919151306 -0.023500213399529457 0.4697912633419037
0.32666900753974915 -0.02066802978515625 0.46888670325279236
0.32990363240242004 -0.018668975681066513 0.468353271484375
0.3356948792934418 -0.014373168349266052 0.46647337079048157
0.34217873215675354 -0.009983672760426998 0.4657958745956421
0.34910258650779724 -0.0051274108700454235 0.4635375738143921
0.354592889547348 -0.0016294860979542136 0.4608471691608429
0.35981398820877075 0.0014163207961246371 0.4574938714504242
0.36091598868370056 0.0030186462681740522 0.45484861731529236
0.36361441016197205 0.004162750206887722 0.4495641887187958
0.366427481174469 0.004419403150677681 0.44535398483276367
0.3684631884098053 0.0037060545291751623 0.43751341104507446
0.3683997392654419 0.0035507201682776213 0.4318273961544037
0.3685946464538574 0.002379455603659153 0.426666259765625
0.36881500482559204 0.0017797851469367743 0.4261462390422821
0.3687484562397003 -0.0006808471516706049 0.41807860136032104
0.36710605025291443 -0.0018125915667042136 0.4130956828594208
0.36505699157714844 -0.0042272950522601604 0.40855100750923157
0.36166509985923767 -0.007017211988568306 0.405487060546875
0.35770851373672485 -0.010656280443072319 0.40269652009010315
0.3531493544578552 -0.015089263208210468 0.4008813500404358
0.3484933376312256 -0.020381927490234375 0.39951902627944946
0.34178802371025085 -0.02676498331129551 0.39933592081069946
0.3334490954875946 -0.03246917575597763 0.3981970250606537
0.3288815915584564 -0.038091886788606644 0.3982592821121216
0.3208427429199219 -0.04356277361512184 0.4008203148841858
0.3161279559135437 -0.04693847522139549 0.4017297327518463
0.3101779520511627 -0.05154357850551605 0.4012853801250458
0.30292031168937683 -0.056934356689453125 0.4030212163925171
0.2958633303642273 -0.062386319041252136 0.40168577432632446
0.2859795391559601 -0.06838317960500717 0.40486326813697815
0.27419447898864746 -0.07483367621898651 0.4073510766029358
0.2631780803203583 -0.08028808236122131 0.4087170362472534
0.2557339370250702 -0.08489608764648438 0.4097863733768463
0.24776042997837067 -0.0883554071187973 0.40876585245132446
0.24646209180355072 -0.09119094908237457 0.40486204624176025
0.24276721477508545 -0.09531372040510178 0.401008278131485
0.24023908376693726 -0.09900329262018204 0.3958740234375
0.24005413055419922 -0.10371841490268707 0.3891076445579529
0.2398342490196228 -0.10543899238109589 0.3855077922344208
0.24036887288093567 -0.10622909665107727 0.38325804471969604
0.24095982313156128 -0.10612823069095612 0.383186012506485
0.242747962474823 -0.10634582489728928 0.3826879858970642
0.2492106556892395 -0.10502929240465164 0.3754052519798279
0.2548827528953552 -0.10460220277309418 0.367645263671875
0.25853443145751953 -0.10244323313236237 0.3639208972454071
0.26494869589805603 -0.09931686520576477 0.36070433259010315
0.2742425501346588 -0.09543212503194809 0.35589599609375
0.28458866477012634 -0.09020645171403885 0.34993529319763184
0.2928560674190521 -0.08503631502389908 0.3475573658943176
0.30430787801742554 -0.07912002503871918 0.34193846583366394
0.31260237097740173 -0.07299163937568665 0.3373974561691284
0.3192616403102875 -0.06857253611087799 0.33586791157722473
0.32569754123687744 -0.06330673396587372 0.3363977074623108
0.3333843946456909 -0.05730239674448967 0.33623412251472473
0.3398810625076294 -0.05067748948931694 0.33586180210113525
0.3460398018360138 -0.044494323432445526 0.33391356468200684
0.3542647361755371 -0.03763977065682411 0.3335339426994324
0.3605768382549286 -0.03113662637770176 0.33338743448257446
0.366377055644989 -0.025318298488855362 0.33430051803588867
0.37253251671791077 -0.01961624063551426 0.33301877975463867
0.3782307207584381 -0.014112700708210468 0.3320056200027466
0.38394156098365784 -0.008918914943933487 0.33092406392097473
0.3901974856853485 -0.0028805541805922985 0.32932859659194946
0.3956640958786011 0.002642669714987278 0.327484130859375
0.40157946944236755 0.007708282209932804 0.3244677782058716
0.4077800214290619 0.012561950832605362 0.3213220238685608
0.41180455684661865 0.01612151972949505 0.31828612089157104
0.41787201166152954 0.019650114700198174 0.3148120045661926
0.42273184657096863 0.023240813985466957 0.3100939989089966
0.42974981665611267 0.02621719241142273 0.3048974573612213
0.43304869532585144 0.02893981896340847 0.30183714628219604
0.436724990606308 0.03141937032341957 0.2970055937767029
0.4397914707660675 0.032654572278261185 0.2949243187904358
0.44089847803115845 0.03290725499391556 0.2919043004512787
0.44178393483161926 0.03290145844221115 0.2894836366176605
0.44529715180397034 0.032011259347200394 0.2834741175174713
0.4452713429927826 0.03041030839085579 0.27925169467926025
0.44625234603881836 0.027076873928308487 0.27562132477760315
0.44325441122055054 0.023900756612420082 0.2727758586406708
0.44278526306152344 0.019512785598635674 0.2703564465045929
0.4374607503414154 0.013959197327494621 0.26981687545776367
0.4317953884601593 0.009300689212977886 0.27052122354507446
0.4226108491420746 0.004057922400534153 0.27381956577301025
0.4145003855228424 -0.002715148963034153 0.27668455243110657
0.40460479259490967 -0.007722930517047644 0.28192138671875
0.3936339020729065 -0.013961028307676315 0.28660887479782104
0.388589084148407 -0.017687834799289703 0.28748899698257446
0.3857300877571106 -0.020757293328642845 0.28669309616088867
0.38300788402557373 -0.023197783157229424 0.28626951575279236
0.38077741861343384 -0.02606857195496559 0.2858874499797821
0.3781664967536926 -0.02854766696691513 0.2851574718952179
0.37603622674942017 -0.030032653361558914 0.28464841842651367
0.3733440935611725 -0.03190978989005089 0.2841821312904358
0.36936789751052856 -0.03438323736190796 0.28410154581069946
0.3634971082210541 -0.03753219544887543 0.2862573266029358
0.3550136089324951 -0.04180038347840309 0.28874632716178894
0.3457363545894623 -0.047966767102479935 0.2915637195110321
0.33654308319091797 -0.054256439208984375 0.29302000999450684
0.32707637548446655 -0.058396756649017334 0.29256102442741394
0.31879881024360657 -0.0627911388874054 0.2937255799770355
0.3126460313796997 -0.06582397222518921 0.2923876941204071
0.30291733145713806 -0.07030456513166428 0.2947375476360321
0.2914324402809143 -0.07502181828022003 0.2938806116580963
0.2732388377189636 -0.07763931155204773 0.29009032249450684
0.2670879065990448 -0.08136611431837082 0.2878698706626892
0.2578800618648529 -0.08627654612064362 0.28855955600738525
0.24932095408439636 -0.09254241734743118 0.2927502393722534
0.24302838742733002 -0.09658065438270569 0.29527342319488525
0.2333146184682846 -0.1008676141500473 0.2992016673088074
0.22642405331134796 -0.10418685525655746 0.30070433020591736
0.21984626352787018 -0.10642272979021072 0.30262938141822815
0.21325963735580444 -0.11003631353378296 0.30443236231803894
0.207193061709404 -0.11204802989959717 0.304534912109375
0.2035391628742218 -0.11370498687028885 0.3041003346443176
0.19591297209262848 -0.11474791914224625 0.3016943335533142
0.19039291143417358 -0.116510771214962 0.30058225989341736
0.18313312530517578 -0.1172778308391571 0.29685789346694946
0.17707864940166473 -0.11898910254240036 0.29680418968200684
0.17079897224903107 -0.1205778494477272 0.29408201575279236
0.16587354242801666 -0.1209230050444603 0.2903796434402466
0.16088882088661194 -0.1211824044585228 0.2866564989089966
0.15476921200752258 -0.12266433238983154 0.28353026509284973
0.1476029008626938 -0.12305083870887756 0.27852049469947815
0.14407487213611603 -0.12371627241373062 0.2765747010707855
0.13954758644104004 -0.12490600347518921 0.2750231921672821
0.13389186561107635 -0.12566116452217102 0.2729516625404358
0.1299028843641281 -0.1265307515859604 0.2712329030036926
0.12293647229671478 -0.12810775637626648 0.26692259311676025
0.11716435104608536 -0.12876495718955994 0.2634033262729645
0.11317531019449234 -0.12918990850448608 0.26088255643844604
0.11037883162498474 -0.12928375601768494 0.26023557782173157
0.10729139298200607 -0.13039946556091309 0.2585205137729645
0.09646569937467575 -0.13146620988845825 0.2533508241176605
0.09221973270177841 -0.13166503608226776 0.2516223192214966
0.09021861851215363 -0.13219314813613892 0.25096312165260315
0.08874915540218353 -0.13254104554653168 0.2512194812297821
0.08699820935726166 -0.13290725648403168 0.2518933117389679
0.08626788854598999 -0.13380400836467743 0.2527209520339966
0.08364954590797424 -0.13528548181056976 0.25419554114341736
0.07674596458673477 -0.1362963765859604 0.25602051615715027
0.06588614732027054 -0.13744476437568665 0.25725463032722473
0.05965747684240341 -0.1385926753282547 0.2605847120285034
0.054648034274578094 -0.13937561213970184 0.26397705078125
0.05378415063023567 -0.13925689458847046 0.26407957077026367
0.054949283599853516 -0.1391003429889679 0.2640368640422821
0.05472153425216675 -0.1393955945968628 0.26488402485847473
0.0540262870490551 -0.13955627381801605 0.2654492259025574
0.053439293056726456 -0.1412898153066635 0.26777708530426025
0.054432716220617294 -0.1421055644750595 0.2761193811893463
0.055311135947704315 -0.14041411876678467 0.2749255299568176
0.05444946140050888 -0.14012999832630157 0.2751501500606537
0.05487164482474327 -0.14035537838935852 0.2752661108970642
0.05476750433444977 -0.14040741324424744 0.27522704005241394
0.05481262877583504 -0.14034713804721832 0.2754919230937958
0.055842623114585876 -0.14066100120544434 0.2755358815193176
0.05565456673502922 -0.14053985476493835 0.27539917826652527
0.05539722368121147 -0.14064955711364746 0.2749609351158142
0.05517148971557617 -0.14146636426448822 0.27570921182632446
0.058278970420360565 -0.1426466405391693 0.27741697430610657
0.05825319513678551 -0.14491499960422516 0.28060057759284973
0.05968896672129631 -0.14712218940258026 0.2907080054283142
0.06024877727031708 -0.14763839542865753 0.29664304852485657
0.05978386849164963 -0.14814560115337372 0.29913330078125
0.05997634306550026 -0.14816176891326904 0.30220335721969604
0.06007464602589607 -0.14818526804447174 0.3070141673088074
0.05754919722676277 -0.14819717407226562 0.3100866675376892
0.05929531902074814 -0.1473529040813446 0.31715941429138184
0.05764828622341156 -0.14707793295383453 0.3217822313308716
0.05584871768951416 -0.14501219987869263 0.3325292766094208
0.05105943605303764 -0.1431616246700287 0.3381396532058716
0.050415586680173874 -0.1419619768857956 0.3426525890827179
0.04845128580927849 -0.1419306844472885 0.3441442847251892
0.04227685183286667 -0.14142975211143494 0.34797361493110657
0.03392346203327179 -0.1402178853750229 0.35109007358551025
0.029144730418920517 -0.14062392711639404 0.3513208031654358
0.02156585082411766 -0.14116454124450684 0.3509265184402466
0.016457008197903633 -0.14216017723083496 0.34953245520591736
0.009590706788003445 -0.14272338151931763 0.3471960425376892
0.002419819822534919 -0.14292968809604645 0.3461535573005676
-0.00026848315610550344 -0.14442627131938934 0.3443395793437958
-0.0071633001789450645 -0.1471640020608902 0.3390161097049713
-0.01571246050298214 -0.14868606626987457 0.3338916003704071
-0.026068639010190964 -0.1479937732219696 0.3297473192214966
-0.034860219806432724 -0.14765915274620056 0.3265783488750458
-0.04095384478569031 -0.14671310782432556 0.3267871141433716
-0.04692808911204338 -0.14662796258926392 0.3300134241580963
-0.05265809968113899 -0.14591948688030243 0.3356677293777466
-0.057000380009412766 -0.14588089287281036 0.34110960364341736
-0.0601327009499073 -0.14575301110744476 0.34812131524086
-0.062348734587430954 -0.14621581137180328 0.3519848585128784
-0.06249202415347099 -0.14737410843372345 0.3548229932785034
-0.0643090233206749 -0.14772872626781464 0.360236793756485
-0.07042653113603592 -0.147491455078125 0.36503538489341736
-0.07610024511814117 -0.14705093204975128 0.3725244104862213
-0.07681401818990707 -0.1468959003686905 0.3754602074623108
-0.07966318726539612 -0.14514006674289703 0.3814746141433716
-0.08079720288515091 -0.14288146793842316 0.3856762647628784
-0.08178744465112686 -0.14200012385845184 0.3872765898704529
-0.0804295539855957 -0.13996200263500214 0.3927099406719208
-0.08141718059778214 -0.13941100239753723 0.3942040801048279
-0.08252044767141342 -0.1360192894935608 0.4018823206424713
-0.08750098943710327 -0.13406890630722046 0.407379150390625
-0.09170196205377579 -0.13120177388191223 0.41468748450279236
-0.09527278691530228 -0.1290125995874405 0.420135498046875
-0.09623334556818008 -0.12689055502414703 0.4245898425579071
-0.0983031839132309 -0.12466873228549957 0.42962646484375
-0.09643641859292984 -0.12254302948713303 0.4350365996360779
-0.10059413313865662 -0.11968322843313217 0.4424157738685608
-0.10658996552228928 -0.11618544906377792 0.4517883062362671
-0.1120687872171402 -0.11379638314247131 0.45905882120132446
-0.11910388618707657 -0.11094024777412415 0.4637426733970642
-0.12570151686668396 -0.10621002316474915 0.47221311926841736
-0.13382266461849213 -0.10262344032526016 0.4794921875
-0.1385827660560608 -0.10075042396783829 0.4834081828594208
-0.14306500554084778 -0.09855452924966812 0.48710325360298157
-0.14588908851146698 -0.09666473418474197 0.4902001917362213
-0.150651216506958 -0.09499328583478928 0.4929455518722534
-0.15722498297691345 -0.09265700727701187 0.49680784344673157
-0.16232435405254364 -0.09012969583272934 0.4995410144329071
-0.1703740805387497 -0.08569411933422089 0.5045800805091858
-0.17712239921092987 -0.08297362923622131 0.5085351467132568
-0.18269610404968262 -0.07916747778654099 0.5115710496902466
-0.19250299036502838 -0.07440841197967529 0.5133996605873108
-0.20077741146087646 -0.07120010256767273 0.5135204792022705
-0.20690928399562836 -0.06873916834592819 0.5124682784080505
-0.21172840893268585 -0.06734008342027664 0.5103967189788818
-0.22291800379753113 -0.06344985961914062 0.5038964748382568
-0.22648246586322784 -0.06299972534179688 0.4991088807582855
-0.23519960045814514 -0.06055999547243118 0.4931958019733429
-0.24104508757591248 -0.05912994220852852 0.48768797516822815
-0.24932125210762024 -0.057246703654527664 0.47846922278404236
-0.25480011105537415 -0.05617828294634819 0.47112059593200684
-0.26332366466522217 -0.054210204631090164 0.45804563164711
-0.26439276337623596 -0.05709686130285263 0.44987669587135315
-0.26252424716949463 -0.06002303957939148 0.44193723797798157
-0.2601833641529083 -0.06345855444669724 0.43758177757263184
-0.25984224677085876 -0.06589477509260178 0.4330468773841858
-0.2573152780532837 -0.06875351071357727 0.43105101585388184
-0.25060510635375977 -0.07377365231513977 0.4289843738079071
-0.2443133443593979 -0.07855194061994553 0.42969968914985657
-0.23318544030189514 -0.08719039708375931 0.4269384741783142
-0.218368262052536 -0.09689925611019135 0.4261767566204071
-0.20835714042186737 -0.10255401581525803 0.4240710437297821
-0.20515428483486176 -0.10571762174367905 0.4222094714641571
-0.204982727766037 -0.1053578183054924 0.42143186926841736
-0.20949140191078186 -0.10574600100517273 0.4156750440597534
-0.2186075747013092 -0.1042868047952652 0.4067785441875458
-0.22903841733932495 -0.10132018476724625 0.39522093534469604
-0.240831658244133 -0.09535827487707138 0.38429075479507446
-0.25209376215934753 -0.08940795809030533 0.37455931305885315
-0.2596594989299774 -0.08520279079675674 0.368804931640625
-0.26731574535369873 -0.07999832183122635 0.362861305475235
-0.27381882071495056 -0.07585937529802322 0.3558996617794037
-0.2848486602306366 -0.06984451413154602 0.3434728980064392
-0.2910829484462738 -0.06679367274045944 0.33876341581344604
-0.2962459921836853 -0.06330322474241257 0.33391234278678894
-0.30052119493484497 -0.06091460958123207 0.32964232563972473
-0.30989012122154236 -0.05823226645588875 0.32429441809654236
-0.31604820489883423 -0.05552825704216957 0.3197900354862213
-0.32426416873931885 -0.05225372314453125 0.3163391053676605
-0.3267822861671448 -0.051032714545726776 0.31395018100738525
-0.33297473192214966 -0.048785705119371414 0.3099914491176605
-0.33587580919265747 -0.04752960056066513 0.30775755643844604
-0.3386518061161041 -0.04698577895760536 0.3044177293777466
-0.3444102704524994 -0.046095579862594604 0.30165159702301025
-0.34959539771080017 -0.04432891681790352 0.2991040050983429
-0.35546737909317017 -0.04058898985385895 0.2968823313713074
-0.3652256727218628 -0.03717788681387901 0.29228147864341736
-0.3743850290775299 -0.03382674977183342 0.2877563536167145
-0.3802679777145386 -0.030863037332892418 0.28602904081344604
-0.38694632053375244 -0.029201049357652664 0.2825683653354645
-0.389560341835022 -0.029084624722599983 0.2803051769733429
-0.39376696944236755 -0.02806960977613926 0.27802854776382446
-0.39474883675575256 -0.028564453125 0.2753918468952179
-0.3980443477630615 -0.027718352153897285 0.2735607922077179
-0.4012356400489807 -0.02676086314022541 0.27109861373901367
-0.4064944386482239 -0.026288604363799095 0.2660815417766571
-0.4101189374923706 -0.02424423210322857 0.26433226466178894
-0.41134998202323914 -0.022384949028491974 0.2635839879512787
-0.41637611389160156 -0.021935729309916496 0.2596081495285034
-0.42141178250312805 -0.02038726769387722 0.25520750880241394
-0.427909791469574 -0.017398376017808914 0.25038084387779236
-0.4314762055873871 -0.017331236973404884 0.24521850049495697
-0.4371607005596161 -0.014593352563679218 0.2411852926015854
-0.4393756687641144 -0.012989806942641735 0.23583129048347473
-0.44125664234161377 -0.01004791259765625 0.23372802138328552
-0.4439680278301239 -0.008173980750143528 0.23252318799495697
-0.44633591175079346 -0.0065080258063972 0.2299511730670929
-0.44860267639160156 -0.005455932579934597 0.22752806544303894
-0.4500964879989624 -0.003880309872329235 0.2267492562532425
-0.45243480801582336 -0.0025131225120276213 0.22222045063972473
-0.4542132318019867 -0.0007101439987309277 0.22112181782722473
-0.45696312189102173 0.0013204956194385886 0.2192370593547821
-0.45964133739471436 0.0036338805221021175 0.21291381120681763
-0.46223360300064087 0.006138000171631575 0.21123045682907104
-0.4636485278606415 0.008096160367131233 0.2078259289264679
-0.46323224902153015 0.007863463833928108 0.20502562820911407
-0.4663880467414856 0.009222259745001793 0.20143188536167145
-0.4665416479110718 0.010505370795726776 0.19819946587085724
-0.4702909290790558 0.014228515326976776 0.1911889612674713
-0.47248294949531555 0.01829269342124462 0.1865588277578354
-0.4731215238571167 0.018497925251722336 0.1852770894765854
-0.47387775778770447 0.01968337967991829 0.18120238184928894
-0.47331953048706055 0.020127257332205772 0.17463500797748566
-0.4707711637020111 0.01984863169491291 0.16846679151058197
-0.4652567505836487 0.02011566050350666 0.16224731504917145
-0.46587443351745605 0.020100248977541924 0.16222289204597473
-0.46508002281188965 0.02068023569881916 0.16222044825553894
-0.4655793309211731 0.020714720711112022 0.16191039979457855
-0.46539750695228577 0.0207865908741951 0.16170775890350342
-0.46821242570877075 0.021589964628219604 0.15622924268245697
-0.4789379835128784 0.024223633110523224 0.13884764909744263
-0.4797639846801758 0.024624327197670937 0.1376086324453354
-0.4808708131313324 0.027718504890799522 0.1325048804283142
-0.4757905900478363 0.02774917520582676 0.13209106028079987
-0.47553879022598267 0.027973631396889687 0.13011474907398224
-0.4759191870689392 0.027507323771715164 0.1283532679080963
-0.473548024892807 0.025668028742074966 0.12528441846370697
-0.4746219217777252 0.026629790663719177 0.12363646924495697
-0.47283437848091125 0.025738371536135674 0.11821655184030533
-0.47250598669052124 0.025246581062674522 0.11113525182008743
-0.4694629907608032 0.023225096985697746 0.10443115234375
-0.46537646651268005 0.02118637040257454 0.0983605906367302
-0.4668179154396057 0.021749267354607582 0.09510864317417145
-0.4662798345088959 0.021923979744315147 0.09316527843475342
-0.4660651683807373 0.021446075290441513 0.09208373725414276
-0.46726831793785095 0.021915588527917862 0.0885009765625
-0.4755992293357849 0.02328338660299778 0.07479248195886612
-0.4760008752346039 0.019467009231448174 0.06539306789636612
-0.47529610991477966 0.017080536112189293 0.05808105319738388
-0.4730604887008667 0.013587646186351776 0.05036254599690437
-0.47330242395401 0.012022704817354679 0.046528320759534836
-0.4733973443508148 0.009887542575597763 0.03915039077401161
-0.472625195980072 0.007467040792107582 0.03447875753045082
-0.4729224741458893 0.0060144043527543545 0.031063232570886612
-0.47187021374702454 0.002710876287892461 0.022852782160043716
-0.47165006399154663 -0.000626525841653347 0.01938476599752903
-0.46939611434936523 -0.004720458760857582 0.013505859300494194
-0.4669072926044464 -0.007708282209932804 0.007846679538488388
-0.46725302934646606 -0.011378326453268528 0.0031481932383030653
-0.46680620312690735 -0.01472625695168972 -0.0022961425129324198
-0.46605831384658813 -0.01772460900247097 -0.007297363132238388
-0.4641017019748688 -0.019942473620176315 -0.010910644195973873
-0.46466219425201416 -0.022610167041420937 -0.014934081584215164
-0.46137896180152893 -0.02616317756474018 -0.018428955227136612
-0.45956313610076904 -0.029202880337834358 -0.021632079035043716
-0.45835065841674805 -0.03271011263132095 -0.025092773139476776
-0.45763906836509705 -0.03491760045289993 -0.028225097805261612
-0.45798903703689575 -0.03857574239373207 -0.0356152318418026
-0.45710694789886475 -0.04217178374528885 -0.04146728292107582
-0.4540158808231354 -0.04624694585800171 -0.044218748807907104
-0.4504488408565521 -0.04903121665120125 -0.04573364183306694
-0.4486691653728485 -0.05210067704319954 -0.046961668878793716
-0.4435843229293823 -0.05633300542831421 -0.04865966737270355
-0.44079309701919556 -0.05907149985432625 -0.050944823771715164
-0.4400685131549835 -0.06180785968899727 -0.05318603292107582
-0.437555730342865 -0.06488388031721115 -0.05580444261431694
-0.437406063079834 -0.06536193937063217 -0.05650268495082855
-0.43406614661216736 -0.06742049753665924 -0.057255856692790985
-0.4335399866104126 -0.06875213235616684 -0.057014159858226776
-0.43350765109062195 -0.06895279139280319 -0.05673827975988388
-0.4313894808292389 -0.0708952322602272 -0.059119872748851776
-0.4287649691104889 -0.07358261197805405 -0.05921874940395355
-0.42608219385147095 -0.07615935802459717 -0.05983886495232582
-0.4210817515850067 -0.07811767607927322 -0.06060546636581421
-0.42020729184150696 -0.07965712994337082 -0.06120849400758743
-0.42010053992271423 -0.08017639070749283 -0.0621044896543026
-0.4172874391078949 -0.08150817453861237 -0.06223510578274727
-0.4157135784626007 -0.08258651196956635 -0.06199951097369194
-0.40986505150794983 -0.08590545505285263 -0.06172851473093033
-0.4057193398475647 -0.08795715123414993 -0.06090698018670082
-0.40042558312416077 -0.09008269757032394 -0.060332030057907104
-0.3953619599342346 -0.09076064825057983 -0.05745483189821243
-0.3934965133666992 -0.09028320014476776 -0.05613403022289276
-0.39188018441200256 -0.09086120128631592 -0.05597290024161339
-0.3885617256164551 -0.09016692638397217 -0.05446166917681694
-0.37735557556152344 -0.09023574739694595 -0.05292724445462227
-0.3691774904727936 -0.09022796154022217 -0.05204834043979645
-0.3632878065109253 -0.09006225317716599 -0.051524657756090164
-0.355599582195282 -0.08951995521783829 -0.05099731311202049
-0.3539189100265503 -0.08838394284248352 -0.050178222358226776
-0.33858534693717957 -0.08881530910730362 -0.05065673589706421
-0.3344910740852356 -0.08815475553274155 -0.050493162125349045
-0.32904481887817383 -0.08783844113349915 -0.05142455920577049
-0.3228302597999573 -0.08809066563844681 -0.05129150301218033
-0.3169621527194977 -0.08853622525930405 -0.05203002691268921
-0.31072840094566345 -0.08965316414833069 -0.05192382633686066
-0.3031894564628601 -0.09181945770978928 -0.05177001655101776
-0.30166569352149963 -0.09311568737030029 -0.05234985053539276
-0.29921504855155945 -0.094853974878788 -0.05231323093175888
-0.2972462773323059 -0.0967629998922348 -0.052708737552165985
-0.2927210032939911 -0.10116424411535263 -0.05423339828848839
-0.2927991449832916 -0.10259200632572174 -0.05544677749276161
-0.29051998257637024 -0.10473006963729858 -0.05654296651482582
-0.287165105342865 -0.10613983124494553 -0.05716308578848839
-0.2790631055831909 -0.1105094850063324 -0.06139892339706421
-0.2721462845802307 -0.11343643069267273 -0.06550781428813934
-0.2700945734977722 -0.11377395689487457 -0.06646239757537842
-0.26863783597946167 -0.11433974653482437 -0.06720336526632309
-0.2676556408405304 -0.11471297591924667 -0.06793212890625
-0.2621977627277374 -0.11485335975885391 -0.06787963956594467
-0.25422629714012146 -0.11316832900047302 -0.06839843839406967
-0.2519952356815338 -0.11214782297611237 -0.06793700903654099
-0.25213947892189026 -0.11079970747232437 -0.06712035834789276
-0.25023868680000305 -0.1115821823477745 -0.06722290068864822
-0.25102320313453674 -0.11095504462718964 -0.06705322116613388
-0.25057634711265564 -0.11084319651126862 -0.06724487245082855
-0.24967215955257416 -0.11139129102230072 -0.06687378138303757
-0.24987582862377167 -0.11122100800275803 -0.06711425632238388
-0.24999748170375824 -0.1112406924366951 -0.067047119140625
-0.249999538064003 -0.11130020022392273 -0.06668456643819809
-0.2496560662984848 -0.1111549362540245 -0.06682128459215164
-0.2495708465576172 -0.11039748787879944 -0.06473266333341599
-0.24929293990135193 -0.11027327924966812 -0.06451171636581421
-0.24855750799179077 -0.1107577458024025 -0.0643640086054802
-0.23957116901874542 -0.11316803097724915 -0.06340820342302322
-0.22415274381637573 -0.11469680815935135 -0.06368774175643921
-0.2224300354719162 -0.11414840072393417 -0.06274169683456421
-0.22025008499622345 -0.11405837535858154 -0.06245971471071243
-0.21980911493301392 -0.11417373269796371 -0.061604004353284836
-0.2187836915254593 -0.11398574709892273 -0.06121215596795082
-0.21892037987709045 -0.11347808688879013 -0.06088012456893921
-0.21685118973255157 -0.11282821744680405 -0.06030639633536339
-0.20840103924274445 -0.11275405436754227 -0.057939451187849045
-0.20632590353488922 -0.11292266845703125 -0.05784423649311066
-0.20370684564113617 -0.11295928806066513 -0.05601562559604645
-0.19933243095874786 -0.11350936442613602 -0.05449462682008743
-0.19112831354141235 -0.11375900357961655 -0.05232299864292145
-0.1868314892053604 -0.11495529115200043 -0.04981689527630806
-0.18098755180835724 -0.11513885110616684 -0.04674438387155533
-0.1747743785381317 -0.1160942018032074 -0.0446484349668026
-0.16790488362312317 -0.11655044555664062 -0.04071411117911339
-0.15908275544643402 -0.11409439146518707 -0.03409668058156967
-0.15296044945716858 -0.11432021856307983 -0.03186645358800888
-0.15087361633777618 -0.11401519179344177 -0.028687743470072746
-0.14417123794555664 -0.11451415717601776 -0.025786131620407104
-0.13576269149780273 -0.11375381052494049 -0.01917724497616291
-0.12898065149784088 -0.11176955699920654 -0.012729492038488388
-0.12130410969257355 -0.11150802671909332 -0.005633544642478228
-0.1136770024895668 -0.1122753918170929 0.0005456542712636292
-0.11139699816703796 -0.11210067570209503 0.004991455003619194
-0.10348810255527496 -0.11451568454504013 0.00972900353372097
-0.09368930757045746 -0.11796600371599197 0.012965087778866291
-0.086944080889225 -0.12258972227573395 0.016191406175494194
-0.08473154902458191 -0.12599074840545654 0.015511474572122097
-0.08099998533725739 -0.13144806027412415 0.01353759691119194
-0.07905811816453934 -0.1342068463563919 0.012222900055348873
-0.07870616018772125 -0.1362403780221939 0.010114746168255806
-0.07801016420125961 -0.13776473701000214 0.010091552510857582
-0.0763988196849823 -0.13873687386512756 0.01430541928857565
-0.07402918487787247 -0.13842497766017914 0.019222412258386612
-0.0707319974899292 -0.13970473408699036 0.02633056603372097
-0.06890703737735748 -0.13894638419151306 0.029244383797049522
-0.0660826787352562 -0.13918395340442657 0.03405517339706421
-0.06225733458995819 -0.13853973150253296 0.03948364034295082
-0.06068657711148262 -0.1395716816186905 0.04538574069738388
-0.05625751242041588 -0.14036773145198822 0.05299682542681694
-0.05339861661195755 -0.1411430388689041 0.0571301244199276
-0.051314257085323334 -0.1393783539533615 0.061784666031599045
-0.05054605379700661 -0.13811461627483368 0.06690307706594467
-0.04904933646321297 -0.136566624045372 0.07262329012155533
-0.04508310183882713 -0.13763244450092316 0.08113647252321243
-0.036806609481573105 -0.14001601934432983 0.09382934123277664
-0.03226755931973457 -0.14045700430870056 0.10155761241912842
-0.027427978813648224 -0.14107941091060638 0.10928710550069809
-0.027276333421468735 -0.14056198298931122 0.11186645179986954
-0.024273833259940147 -0.14032623171806335 0.11591186374425888
-0.022578401491045952 -0.1415718048810959 0.11887206882238388
-0.0201011560857296 -0.14130325615406036 0.12211791425943375
-0.019069604575634003 -0.1407891809940338 0.12540771067142487
-0.017653197050094604 -0.1407623291015625 0.13030028343200684
-0.01583659090101719 -0.14108535647392273 0.13500365614891052
-0.013566913083195686 -0.14218902587890625 0.13801635801792145
-0.01300232857465744 -0.14359770715236664 0.14261718094348907
-0.010890588164329529 -0.1456814557313919 0.14565184712409973
-0.009742841124534607 -0.14806899428367615 0.14534911513328552
-0.007206315640360117 -0.15331481397151947 0.1462439000606537
-0.007264699786901474 -0.157378688454628 0.1457263082265854
-0.008238677866756916 -0.1619696021080017 0.14316405355930328
-0.010727682150900364 -0.16673660278320312 0.13902588188648224
-0.013123273849487305 -0.16905181109905243 0.1324169933795929
-0.02182903327047825 -0.16855208575725555 0.12099975347518921
-0.027357691898941994 -0.16876693069934845 0.10582397133111954
-0.03340837359428406 -0.16847214102745056 0.09257934242486954
-0.03851839900016785 -0.16749602556228638 0.08068115264177322
-0.042162951081991196 -0.1665484607219696 0.07057494670152664
-0.04535578563809395 -0.16666564345359802 0.06213989108800888
-0.04843657463788986 -0.16809356212615967 0.055607907474040985
-0.05319386348128319 -0.16735625267028809 0.04863037168979645
-0.0550689697265625 -0.16745834052562714 0.046119384467601776
-0.05810949206352234 -0.16832946240901947 0.04013671725988388
-0.061807144433259964 -0.16840407252311707 0.031837157905101776
-0.0643622949719429 -0.17127548158168793 0.025028076022863388
-0.06543803960084915 -0.17339812219142914 0.023603515699505806
-0.06535560637712479 -0.17737288773059845 0.02419433556497097
-0.06497625261545181 -0.18211883306503296 0.025822753086686134
-0.06268414109945297 -0.1880732625722885 0.03152221441268921
-0.059239909052848816 -0.19316710531711578 0.038917236030101776
-0.05726882815361023 -0.19692154228687286 0.04616454988718033
-0.053109340369701385 -0.19977599382400513 0.05309204012155533
-0.05078038200736046 -0.20213530957698822 0.06037353351712227
-0.04446190595626831 -0.20584945380687714 0.06987304240465164
-0.04142163321375847 -0.2076943963766098 0.07572387158870697
-0.040709417313337326 -0.20718993246555328 0.0764758288860321
-0.040024250745773315 -0.20755110681056976 0.07708373665809631
-0.039395980536937714 -0.2062707543373108 0.078094482421875
-0.03976113349199295 -0.20560073852539062 0.07881591469049454
-0.037414900958538055 -0.2050405889749527 0.08362182229757309
-0.03335747495293617 -0.2046772688627243 0.09434325993061066
-0.02599227800965309 -0.20568831264972687 0.10447753965854645
-0.021927613765001297 -0.2040107697248459 0.11336791515350342
-0.01739151030778885 -0.2023179531097412 0.11800903081893921
-0.016677208244800568 -0.2014436274766922 0.12004394084215164
-0.015806283801794052 -0.19897018373012543 0.12323730438947678
-0.0124215604737401 -0.1966416835784912 0.1270764172077179
-0.01315491646528244 -0.19417709112167358 0.1285730004310608
-0.007063493598252535 -0.19175292551517487 0.13572998344898224
0.0021230934653431177 -0.19195784628391266 0.14190062880516052
0.005459885578602552 -0.19095687568187714 0.14479979872703552
0.010940322652459145 -0.1894344985485077 0.14873534440994263
0.01997351087629795 -0.18890151381492615 0.15235961973667145
0.030357612296938896 -0.1880229115486145 0.1533789038658142
0.031083039939403534 -0.18656890094280243 0.1541113257408142
0.03168414533138275 -0.1861613392829895 0.15436767041683197
0.034434545785188675 -0.18600402772426605 0.15431152284145355
0.04886184260249138 -0.18436980247497559 0.14988769590854645
0.0577164925634861 -0.18005400896072388 0.14445678889751434
0.06192183867096901 -0.17803893983364105 0.14174437522888184
0.06607554107904434 -0.17496933043003082 0.1384289562702179
0.06760643422603607 -0.17334426939487457 0.13631591200828552
0.06717776507139206 -0.1721232533454895 0.1357153356075287
0.06937335431575775 -0.17267638444900513 0.13460448384284973
0.07028014212846756 -0.1710984706878662 0.13425414264202118
0.07166557013988495 -0.16659164428710938 0.13301147520542145
0.07340221852064133 -0.1627960205078125 0.13128662109375
0.07497558742761612 -0.1605493128299713 0.12978392839431763
0.07535913586616516 -0.16019806265830994 0.12965576350688934
0.07620077580213547 -0.16194197535514832 0.12831054627895355
0.07867428660392761 -0.16511809825897217 0.12301269173622131
0.07954630255699158 -0.16830916702747345 0.11989867687225342
0.08092568814754486 -0.1723913550376892 0.11786986887454987
0.07992994785308838 -0.17419402301311493 0.11769165098667145
0.0795670822262764 -0.17871199548244476 0.1188366636633873
0.07974275201559067 -0.18395018577575684 0.11887817084789276
0.08014484494924545 -0.18675215542316437 0.11823485791683197
0.08066269755363464 -0.19103072583675385 0.11468871682882309
0.08292829990386963 -0.19384047389030457 0.11108031868934631
0.08437049388885498 -0.19393600523471832 0.10851806402206421
0.08675605803728104 -0.19244323670864105 0.10485107451677322
0.08554527163505554 -0.19166961312294006 0.104827880859375
0.08970194309949875 -0.18778319656848907 0.09937378019094467
0.09060173481702805 -0.18323791027069092 0.09688476473093033
0.09378799051046371 -0.17791686952114105 0.09344115853309631
0.09507295489311218 -0.17141219973564148 0.0895397961139679
0.0974692702293396 -0.16378875076770782 0.08492553234100342
0.09889423847198486 -0.15679916739463806 0.08168578892946243
0.10255307704210281 -0.14943817257881165 0.0763562023639679
0.10501892119646072 -0.14174926280975342 0.06906738132238388
0.11011993139982224 -0.13682419061660767 0.05846557393670082
0.11394147574901581 -0.13206146657466888 0.046416014432907104
0.11713708937168121 -0.12955474853515625 0.03415527194738388
0.12082910537719727 -0.1292230188846588 0.022926025092601776
0.12301528453826904 -0.12987197935581207 0.017060546204447746
0.12312907725572586 -0.13170073926448822 0.012918700464069843
0.12292305380105972 -0.13353636860847473 0.010424804873764515
0.12415464222431183 -0.1367913782596588 0.008382568135857582
0.12394019961357117 -0.13961608707904816 0.00643310509622097
0.12378614395856857 -0.14376616477966309 0.0038635253440588713
0.12489930540323257 -0.1488877832889557 -0.0018566894577816129
0.1268460750579834 -0.1527417004108429 -0.00716552697122097
0.1262652724981308 -0.156890869140625 -0.011243896558880806
0.12760372459888458 -0.15894606709480286 -0.013056640513241291
0.12653619050979614 -0.16120177507400513 -0.013344726525247097
0.12501242756843567 -0.16056212782859802 -0.012929687276482582
0.125929594039917 -0.1585990935564041 -0.012117919512093067
0.12649621069431305 -0.1543496698141098 -0.009566649794578552
0.12609760463237762 -0.15083831548690796 -0.007166747935116291
0.12502023577690125 -0.14717330038547516 -0.0023425291292369366
0.12376635521650314 -0.14362381398677826 0.002070312388241291
0.12126810103654861 -0.1419801265001297 0.008248290978372097
0.12015197426080704 -0.14210312068462372 0.013218994252383709
0.11740487813949585 -0.1450660675764084 0.02283935435116291
0.11144763976335526 -0.15037551522254944 0.03605712950229645
0.10813148319721222 -0.15673202276229858 0.047868650406599045
0.10332261025905609 -0.16505630314350128 0.05906493961811066
0.09819701313972473 -0.17416228353977203 0.06813476234674454
0.09471789747476578 -0.18234069645404816 0.07531005889177322
0.09378083050251007 -0.19152328372001648 0.08082519471645355
0.08751995116472244 -0.20327651500701904 0.09060424566268921
0.07972968369722366 -0.21128126978874207 0.1027246043086052
0.07609208673238754 -0.2155357301235199 0.1076977550983429
0.070230633020401 -0.22111663222312927 0.11283081024885178
0.06872902065515518 -0.22491545975208282 0.11308349668979645
0.0707821175456047 -0.22584761679172516 0.1113598644733429
0.07264842092990875 -0.2260565161705017 0.1087963879108429
0.07638028264045715 -0.2265905737876892 0.10315429419279099
0.08314106613397598 -0.22512602806091309 0.09406372159719467
0.08855761587619781 -0.220193013548851 0.08278930187225342
0.09520106762647629 -0.21189315617084503 0.06064696982502937
0.10397976636886597 -0.20120833814144135 0.039561767131090164
0.10782985389232635 -0.19182097911834717 0.022247314453125
0.11134744435548782 -0.18552978336811066 0.011445311829447746
0.11410171538591385 -0.18043258786201477 0.004241943359375
0.11631911993026733 -0.17490600049495697 -0.0008642578031867743
0.11910402029752731 -0.16999709606170654 -0.006629638373851776
0.12154713273048401 -0.16445724666118622 -0.010046386159956455
0.12432821094989777 -0.16037322580814362 -0.013708495534956455
0.12736889719963074 -0.1558392345905304 -0.016878662630915642
0.13022097945213318 -0.1519177258014679 -0.020185546949505806
0.13314220309257507 -0.14847853779792786 -0.021267089992761612
0.13500232994556427 -0.1447126716375351 -0.02188720740377903
0.13877928256988525 -0.1422675997018814 -0.022669676691293716
0.1405305415391922 -0.13842421770095825 -0.022648924961686134
0.1448509693145752 -0.13442061841487885 -0.023973388597369194
0.1459377259016037 -0.1316755712032318 -0.022087402641773224
0.14732861518859863 -0.12829895317554474 -0.020606689155101776
0.1491875946521759 -0.12336257845163345 -0.01959228515625
0.15388330817222595 -0.1182844489812851 -0.01905517466366291
0.1613323986530304 -0.11298995465040207 -0.02058715745806694
0.16544772684574127 -0.11057128757238388 -0.021883543580770493
0.16828729212284088 -0.10856063663959503 -0.022993164137005806
0.16950538754463196 -0.10872741788625717 -0.023464355617761612
0.17585903406143188 -0.11023742705583572 -0.028927002102136612
0.17533628642559052 -0.11023345589637756 -0.029796142131090164
0.17922420799732208 -0.11448074132204056 -0.033732909709215164
0.17872101068496704 -0.12056838721036911 -0.0385754369199276
0.17751070857048035 -0.12504225969314575 -0.043159179389476776
0.17841601371765137 -0.12766769528388977 -0.04697997868061066
0.17823193967342377 -0.13082443177700043 -0.048961181193590164
0.17776325345039368 -0.13448654115200043 -0.054645996540784836
0.18096385896205902 -0.1378268450498581 -0.064788818359375
0.18016591668128967 -0.13911758363246918 -0.06870361417531967
0.18077196180820465 -0.13936050236225128 -0.07342040538787842
0.18329940736293793 -0.1389952003955841 -0.07607422024011612
0.18649359047412872 -0.13803985714912415 -0.08497436344623566
0.19133535027503967 -0.13597916066646576 -0.09308715909719467
0.19865325093269348 -0.13279616832733154 -0.0995202586054802
0.20258687436580658 -0.1314350813627243 -0.10182372480630875
0.20769265294075012 -0.12739257514476776 -0.10382812470197678
0.21584193408489227 -0.12282134592533112 -0.10783813148736954
0.22153323888778687 -0.11933593451976776 -0.10904296487569809
0.22901339828968048 -0.11461517214775085 -0.11247802525758743
0.2307683378458023 -0.11335434019565582 -0.11166992038488388
0.23150634765625 -0.11324310302734375 -0.11161498725414276
0.23150287568569183 -0.11327346414327621 -0.11156005412340164
0.23304268717765808 -0.11373885720968246 -0.11157714575529099
0.23390492796897888 -0.11397536844015121 -0.10849853605031967
0.2348918616771698 -0.11555816233158112 -0.10330566018819809
0.23659606277942657 -0.11638641357421875 -0.09621582180261612
0.239048033952713 -0.11601196229457855 -0.09056152403354645
0.2421942800283432 -0.11494521796703339 -0.08912841230630875
0.24580547213554382 -0.1130206286907196 -0.088592529296875
0.2481147199869156 -0.1117330938577652 -0.08318481594324112
0.24981717765331268 -0.11049758642911911 -0.08299072086811066
0.2531951665878296 -0.10910476744174957 -0.08192382752895355
0.25847259163856506 -0.10732681304216385 -0.08043090999126434
0.26163870096206665 -0.10532943159341812 -0.07872192561626434
0.26509609818458557 -0.10386733710765839 -0.07848510891199112
0.26990821957588196 -0.10084487497806549 -0.07547607272863388
0.27004048228263855 -0.09763778746128082 -0.07276245206594467
0.2725162208080292 -0.09614989906549454 -0.07236083596944809
0.2727726995944977 -0.09558593481779099 -0.07229125499725342
0.2746736407279968 -0.09552200138568878 -0.07284911721944809
0.27508780360221863 -0.09608153998851776 -0.07307372987270355
0.2773449122905731 -0.09579025208950043 -0.07361205667257309
0.28139549493789673 -0.09487289190292358 -0.07465942203998566
0.2865035831928253 -0.09420089423656464 -0.07735229283571243
0.2928890585899353 -0.09240081906318665 -0.08240844309329987
0.29328104853630066 -0.0926249697804451 -0.0828881785273552
0.29098376631736755 -0.09280914068222046 -0.0821826159954071
0.29136544466018677 -0.09286148101091385 -0.0822131335735321
0.2925191819667816 -0.09284835308790207 -0.08276733011007309
0.2922725975513458 -0.09661239385604858 -0.08380614966154099
0.28468430042266846 -0.10230498760938644 -0.09528198093175888
0.2826332151889801 -0.0986410528421402 -0.11205565929412842
0.2837781012058258 -0.09267440438270569 -0.12694823741912842
0.2876479923725128 -0.09028656035661697 -0.12998412549495697
0.29276418685913086 -0.0895274356007576 -0.1294885277748108
0.2964114248752594 -0.08825133740901947 -0.13005493581295013
0.30557820200920105 -0.08644759654998779 -0.1316491663455963
0.3102670907974243 -0.08540191501379013 -0.13178344070911407
0.31999924778938293 -0.08229278028011322 -0.13389770686626434
0.3256394863128662 -0.0809602364897728 -0.13430297374725342
0.3309096395969391 -0.07854843139648438 -0.13725464046001434
0.3387260437011719 -0.07655502110719681 -0.1398632824420929
0.33857351541519165 -0.07542587071657181 -0.14246825873851776
0.3401455581188202 -0.07395019382238388 -0.14571532607078552
0.3420870006084442 -0.07002166658639908 -0.15545654296875
0.34441420435905457 -0.06710266321897507 -0.1649133265018463
0.3483884036540985 -0.06606872379779816 -0.16704833507537842
0.35163989663124084 -0.06541351228952408 -0.1673608422279358
0.36141470074653625 -0.0647401437163353 -0.16628417372703552
0.37230849266052246 -0.06397552043199539 -0.16291259229183197
0.38259753584861755 -0.06254088878631592 -0.1558862328529358
0.3861083388328552 -0.06253433227539062 -0.14866332709789276
0.38997405767440796 -0.0621115081012249 -0.14638549089431763
0.3899122178554535 -0.06119445711374283 -0.14580443501472473
0.3902819752693176 -0.061011046171188354 -0.1458422839641571
