0.41898053884506226 -0.007681732065975666 0.25923094153404236
0.4189065098762512 -0.008890381082892418 0.2558581531047821
0.42088767886161804 -0.008771361783146858 0.25370359420776367
0.4244394302368164 -0.008059081621468067 0.25141844153404236
0.4277076721191406 -0.006261596456170082 0.2500671446323395
0.4338931143283844 -0.0033563231118023396 0.24593260884284973
0.4384532570838928 -0.0002587890485301614 0.2445654273033142
0.44137388467788696 0.0018849181942641735 0.24349364638328552
0.4451519548892975 0.004047698806971312 0.24125365912914276
0.44826486706733704 0.006014098878949881 0.24042968451976776
0.4505561590194702 0.006992034614086151 0.23968505859375
0.45324817299842834 0.008250884711742401 0.2382226437330246
0.45733532309532166 0.010093841701745987 0.23560301959514618
0.46208521723747253 0.012027282267808914 0.23128294944763184
0.4634658992290497 0.012406463734805584 0.22933349013328552
0.4636065661907196 0.012370605021715164 0.2288525402545929
0.46392306685447693 0.012799224816262722 0.22881469130516052
0.4671456515789032 0.013377990573644638 0.22648924589157104
0.4687993824481964 0.013776702806353569 0.22523681819438934
0.46986818313598633 0.014611358754336834 0.22305907309055328
0.47727006673812866 0.016323242336511612 0.21639281511306763
0.4792446792125702 0.016768645495176315 0.21161620318889618
0.48253771662712097 0.016135558485984802 0.20539061725139618
0.4854077398777008 0.017299652099609375 0.20124755799770355
0.48607826232910156 0.017049865797162056 0.1974828988313675
0.4870460033416748 0.016653137281537056 0.19330443441867828
0.4867299497127533 0.016793517395853996 0.19319336116313934
0.4876517057418823 0.016848448663949966 0.19167602062225342
0.4892335832118988 0.017592161893844604 0.19075073301792145
0.4910602569580078 0.019085083156824112 0.18809448182582855
0.49451205134391785 0.020952606573700905 0.1854541003704071
0.49586164951324463 0.022789916023612022 0.1819165050983429
0.4973749816417694 0.024028319865465164 0.18146972358226776
0.4972275495529175 0.025133056566119194 0.180938720703125
0.5002405643463135 0.02685439959168434 0.1752978414297104
0.5012607574462891 0.027988586574792862 0.1694372594356537
0.5004080533981323 0.0291143786162138 0.16240721940994263
0.5009608268737793 0.03038482554256916 0.1564611792564392
0.5011004209518433 0.031309813261032104 0.15443114936351776
0.5002044439315796 0.031572263687849045 0.15483641624450684
0.5011907815933228 0.03272949159145355 0.15458007156848907
0.5037381052970886 0.03408493101596832 0.153289794921875
0.5037601590156555 0.03444213792681694 0.15312620997428894
0.5112553238868713 0.04101089388132095 0.15144409239292145
0.5140836834907532 0.04507400467991829 0.14821776747703552
0.5131582617759705 0.04670669510960579 0.14689330756664276
0.5128474831581116 0.04644988849759102 0.14460204541683197
0.5125863552093506 0.04635421559214592 0.1446215808391571
0.5127716064453125 0.04650161787867546 0.14446410536766052
0.5119304656982422 0.04633453115820885 0.1443518102169037
0.512508749961853 0.0462564080953598 0.14434325695037842
0.5129139423370361 0.04578964039683342 0.1437719762325287
0.511772096157074 0.04488281160593033 0.14317016303539276
0.5102860331535339 0.04315078631043434 0.1405676305294037
0.5043725371360779 0.04163940250873566 0.13145630061626434
0.482060045003891 0.04912872239947319 0.11941039562225342
0.48744651675224304 0.04745986685156822 0.118316650390625
0.48868873715400696 0.047391049563884735 0.12084228545427322
0.48799461126327515 0.04774536192417145 0.12166869640350342
0.4882762134075165 0.047662198543548584 0.12146361917257309
0.4882127642631531 0.04755920171737671 0.12125488370656967
0.48848673701286316 0.04741775244474411 0.12120483070611954
0.4906410872936249 0.04651077091693878 0.12000854313373566
0.4949016869068146 0.04542861878871918 0.11071410775184631
0.5046360492706299 0.047933805733919144 0.10430541634559631
0.5054833292961121 0.04942870885133743 0.0976855456829071
0.5057515501976013 0.04999389499425888 0.09565795958042145
0.5054672956466675 0.050321806222200394 0.09523803740739822
0.5059902667999268 0.0501902773976326 0.0933239758014679
0.5045758485794067 0.050733793526887894 0.08647094666957855
0.5039430260658264 0.0519062802195549 0.07906494289636612
0.5038561224937439 0.05181747302412987 0.07678955048322678
0.5041544437408447 0.051759641617536545 0.07275390625
0.5039882063865662 0.05283935368061066 0.07082397490739822
0.5047101378440857 0.05339553579688072 0.06508300453424454
0.5067073702812195 0.054570768028497696 0.06333007663488388
0.5072319507598877 0.0557473748922348 0.0632922351360321
0.5109110474586487 0.05810897797346115 0.06347411870956421
0.5140583515167236 0.060792844742536545 0.06413452327251434
0.5157318115234375 0.06279724091291428 0.06498901546001434
0.5168283581733704 0.06408859044313431 0.06573241949081421
0.518720269203186 0.06511688232421875 0.06585448980331421
0.5195958018302917 0.0665975958108902 0.06675536930561066
0.5220716595649719 0.06846176087856293 0.06659790128469467
0.5225390791893005 0.0701017752289772 0.067138671875
0.526292085647583 0.07318664342164993 0.06716430187225342
0.5266631841659546 0.07479064911603928 0.0670190379023552
0.5285181403160095 0.07631088048219681 0.06416992098093033
0.5279479622840881 0.07639465481042862 0.06061157211661339
0.5262584090232849 0.07427047193050385 0.05339111387729645
0.5232059359550476 0.0710284411907196 0.047154538333415985
0.5197591781616211 0.06792297214269638 0.04089721664786339
0.5181348919868469 0.0651797503232956 0.03597778081893921
0.5163657069206238 0.06318496912717819 0.029335936531424522
0.513764500617981 0.061847686767578125 0.026214599609375
0.513428807258606 0.059680480509996414 0.022504882887005806
0.5114996433258057 0.057802122086286545 0.019923094660043716
0.5096309781074524 0.05463394150137901 0.018618162721395493
0.5058261156082153 0.0513334646821022 0.01813964731991291
0.5033431649208069 0.048203885555267334 0.017249755561351776
0.5001278519630432 0.04603942856192589 0.016437988728284836
0.4987941384315491 0.04412368685007095 0.015183105133473873
0.4955885112285614 0.04074081405997276 0.011749267578125
0.4942847192287445 0.03874770924448967 0.007733154110610485
0.49159765243530273 0.036525726318359375 0.004223632626235485
0.4914267361164093 0.035232238471508026 0.00023925780260469764
0.4927687644958496 0.03472427278757095 -0.003043212927877903
0.4929591119289398 0.03513336181640625 -0.004761962685734034
0.4993809461593628 0.037974853068590164 -0.011232909746468067
0.5025731325149536 0.0417356863617897 -0.014256591908633709
0.505066454410553 0.04338592290878296 -0.014409179799258709
0.5081456899642944 0.04695037752389908 -0.015168456360697746
0.5095022320747375 0.04919494688510895 -0.015758056193590164
0.5118164420127869 0.05055816471576691 -0.017753906548023224
0.5169088244438171 0.05451644957065582 -0.02574829012155533
0.5194019079208374 0.056748807430267334 -0.03284301608800888
0.5201291441917419 0.05597122013568878 -0.03741210699081421
0.5197663307189941 0.05415084585547447 -0.0454418919980526
0.5183115005493164 0.050050657242536545 -0.050880126655101776
0.513739287853241 0.04407745227217674 -0.05446533113718033
0.5112701654434204 0.03888031095266342 -0.05722412094473839
0.5070686340332031 0.03428695723414421 -0.059691160917282104
0.5044750571250916 0.030538635328412056 -0.05994506552815437
0.5009284615516663 0.02604720927774906 -0.05924682319164276
0.4965426027774811 0.0209051501005888 -0.05701537802815437
0.49071821570396423 0.015972595661878586 -0.05466552451252937
0.4860065281391144 0.012677307240664959 -0.05346923694014549
0.48091986775398254 0.007898559793829918 -0.05528320372104645
0.4778793156147003 0.004467315506190062 -0.058171384036540985
0.4780389964580536 0.003577117808163166 -0.059748534113168716
0.4779610335826874 0.00388412456959486 -0.05950927734375
0.47784799337387085 0.003935852088034153 -0.05973266437649727
0.4781302809715271 0.0035928343422710896 -0.060676269233226776
0.47892865538597107 0.002403869526460767 -0.06297241151332855
0.4788898825645447 0.0004130554152652621 -0.06901733577251434
0.48694413900375366 0.0007814025739207864 -0.08680541813373566
0.4893552362918854 0.0018003844888880849 -0.09528442472219467
0.49372339248657227 0.003741149790585041 -0.10590575635433197
0.4953371286392212 0.006782836746424437 -0.1071154773235321
0.49978873133659363 0.011113891378045082 -0.10871093720197678
0.5044898986816406 0.01761123538017273 -0.11124877631664276
0.5076567530632019 0.024950865656137466 -0.11164306104183197
0.5120071172714233 0.0319242849946022 -0.11436156928539276
0.515654444694519 0.037800293415784836 -0.11553222686052322
0.5209192037582397 0.04538009688258171 -0.11831298470497131
0.5257582068443298 0.05234985053539276 -0.11915893107652664
0.5300716757774353 0.059196777641773224 -0.12015258520841599
0.5329475402832031 0.06507598608732224 -0.12083861976861954
0.535681426525116 0.07005523890256882 -0.11883544921875
0.5373162031173706 0.07479903846979141 -0.11785522103309631
0.5384724736213684 0.07849029451608658 -0.1146557554602623
0.5399221181869507 0.08151687681674957 -0.11113037168979645
0.5407213568687439 0.0848635882139206 -0.10678710788488388
0.5414442420005798 0.08695937693119049 -0.10115355998277664
0.5411863923072815 0.08890609443187714 -0.09801879525184631
0.5427064299583435 0.09252334386110306 -0.09349975734949112
0.543206512928009 0.09565383940935135 -0.08742064982652664
0.543698251247406 0.09879577159881592 -0.08163207769393921
0.5430490374565125 0.10143905133008957 -0.07761962711811066
0.5434039235115051 0.10562270879745483 -0.0728173777461052
0.5430877804756165 0.10800033062696457 -0.06821655482053757
0.542419970035553 0.1118035838007927 -0.06172119081020355
0.5412117838859558 0.11269897222518921 -0.05389159917831421
0.5401725769042969 0.11363814771175385 -0.04930053651332855
0.5413030982017517 0.11275237798690796 -0.04377441480755806
0.539762020111084 0.10984710603952408 -0.03624511510133743
0.538899838924408 0.1067768856883049 -0.03014282137155533
0.5374712347984314 0.10343917459249496 -0.02716674655675888
0.5369771718978882 0.09659469127655029 -0.023125000298023224
0.5340887904167175 0.08943694829940796 -0.02102050743997097
0.5304571986198425 0.08156447857618332 -0.018348388373851776
0.5276162624359131 0.07583434879779816 -0.01634887605905533
0.5233863592147827 0.06867644935846329 -0.015133055858314037
0.5197396278381348 0.0622294619679451 -0.01740722544491291
0.5143615007400513 0.05469497665762901 -0.022336425259709358
0.5098096132278442 0.047971341758966446 -0.028553465381264687
0.5068777203559875 0.04149230942130089 -0.03583373874425888
0.5046754479408264 0.03616271913051605 -0.04392700269818306
0.5035074353218079 0.03240356221795082 -0.05323119834065437
0.5028232336044312 0.029387205839157104 -0.06053710728883743
0.5016425848007202 0.026805724948644638 -0.06790893524885178
0.5014940500259399 0.025060730054974556 -0.07223266363143921
0.5011257529258728 0.022248992696404457 -0.07965698093175888
0.5008758306503296 0.0191802978515625 -0.08734130859375
0.49997323751449585 0.016322478652000427 -0.09687377512454987
0.5000666975975037 0.014200134202837944 -0.10243041813373566
0.49915507435798645 0.012067412957549095 -0.11161743104457855
0.49779075384140015 0.01110916119068861 -0.12202025949954987
0.49603161215782166 0.008238677866756916 -0.13028685748577118
0.4940244257450104 0.0044169616885483265 -0.13709960877895355
0.49191033840179443 0.0021540832240134478 -0.14015014469623566
0.49050870537757874 -0.0015812682686373591 -0.14561767876148224
0.4871736168861389 -0.004583435133099556 -0.15123778581619263
0.48642051219940186 -0.007754364050924778 -0.15849487483501434
0.48423221707344055 -0.009916076436638832 -0.1631213277578354
0.4817832112312317 -0.01174163818359375 -0.1672375500202179
0.47977903485298157 -0.014643249101936817 -0.17234130203723907
0.47632089257240295 -0.0171667467802763 -0.17598022520542145
0.46991080045700073 -0.02205551043152809 -0.18239136040210724
0.46223708987236023 -0.026114806532859802 -0.1886877417564392
0.45839256048202515 -0.027957763522863388 -0.19141356647014618
0.45655032992362976 -0.03008926287293434 -0.19172851741313934
0.4533703923225403 -0.03155212476849556 -0.19104613363742828
0.452189564704895 -0.033376920968294144 -0.19196288287639618
0.4481266736984253 -0.03576873615384102 -0.19246336817741394
0.4462679326534271 -0.03715331852436066 -0.19048339128494263
0.44367900490760803 -0.03958175703883171 -0.18256469070911407
0.4433225095272064 -0.04010772705078125 -0.17786987125873566
0.44198575615882874 -0.041033629328012466 -0.17519530653953552
0.44086992740631104 -0.0415220633149147 -0.16845092177391052
0.43772268295288086 -0.04338989034295082 -0.16300903260707855
0.43696174025535583 -0.044411469250917435 -0.16138793528079987
0.43270227313041687 -0.047122955322265625 -0.15428709983825684
0.43126243352890015 -0.04829452559351921 -0.15273192524909973
0.4274689853191376 -0.051574401557445526 -0.14448608458042145
0.42713087797164917 -0.0523558035492897 -0.14354248344898224
0.42816993594169617 -0.05261993408203125 -0.14183592796325684
0.4277477562427521 -0.05357833579182625 -0.13802611827850342
0.42568808794021606 -0.05522323399782181 -0.13199461996555328
0.42453470826148987 -0.056326139718294144 -0.1279589831829071
0.4226806163787842 -0.0576670840382576 -0.12711425125598907
0.41689789295196533 -0.06035400182008743 -0.12285277992486954
0.41384464502334595 -0.062199097126722336 -0.12092772871255875
0.4121835231781006 -0.062133483588695526 -0.12013183534145355
0.4111540913581848 -0.06314391642808914 -0.1210961863398552
0.4061466455459595 -0.06537612527608871 -0.12279662489891052
0.39479026198387146 -0.06885024905204773 -0.12570922076702118
0.38998937606811523 -0.06902831792831421 -0.12789183855056763
0.37949225306510925 -0.06764831393957138 -0.13203491270542145
0.3750796318054199 -0.06482970714569092 -0.13401366770267487
0.3768617510795593 -0.064702607691288 -0.13508300483226776
0.376800000667572 -0.06446853280067444 -0.1355554163455963
0.3774860203266144 -0.06382949650287628 -0.1370898336172104
0.37789657711982727 -0.06367065012454987 -0.13808105885982513
0.38014623522758484 -0.06362960487604141 -0.14494018256664276
0.3770279586315155 -0.06269638240337372 -0.1550646871328354
0.37578094005584717 -0.06254439800977707 -0.1584521383047104
0.37501493096351624 -0.062488097697496414 -0.16416870057582855
0.37418732047080994 -0.061942748725414276 -0.1668737828731537
0.37388718128204346 -0.06143936142325401 -0.1753259301185608
0.37325412034988403 -0.06051544100046158 -0.17778930068016052
0.37279456853866577 -0.06074829027056694 -0.1841455101966858
0.36724376678466797 -0.060661621391773224 -0.1901843249797821
0.3621828854084015 -0.06024185195565224 -0.19566650688648224
0.35530439019203186 -0.060176391154527664 -0.19880737364292145
0.34965890645980835 -0.05985763296484947 -0.1999865621328354
0.34504812955856323 -0.05969329550862312 -0.2007495015859604
0.3342359960079193 -0.05965270847082138 -0.1981542855501175
0.32742202281951904 -0.059971921145915985 -0.19236205518245697
0.32294753193855286 -0.061228178441524506 -0.18851806223392487
0.3187370300292969 -0.06260177493095398 -0.1832543909549713
0.3150375485420227 -0.06395935267210007 -0.17988036572933197
0.30869942903518677 -0.06670959293842316 -0.17423583567142487
0.30490389466285706 -0.06881408393383026 -0.16899047791957855
0.30104830861091614 -0.07104476541280746 -0.1640063375234604
0.298512727022171 -0.07308852672576904 -0.1601306051015854
0.2979484796524048 -0.0748690813779831 -0.15726317465305328
0.29686951637268066 -0.07688415050506592 -0.1531420797109604
0.2959481477737427 -0.07910171151161194 -0.1497216820716858
0.2936910092830658 -0.08162322640419006 -0.1458142101764679
0.288375586271286 -0.08403915166854858 -0.14179320633411407
0.288747638463974 -0.08389419317245483 -0.14115111529827118
0.287647545337677 -0.0856158435344696 -0.13789428770542145
0.2869393527507782 -0.0861593633890152 -0.13474853336811066
0.28802967071533203 -0.08727340400218964 -0.13361571729183197
0.2858498990535736 -0.08980956673622131 -0.1282934546470642
0.2844424843788147 -0.09094100445508957 -0.12642699480056763
0.283515989780426 -0.09236633032560349 -0.12471313029527664
0.28118249773979187 -0.09381591528654099 -0.1214587390422821
0.2812420725822449 -0.09476714581251144 -0.11929687112569809
0.2812352180480957 -0.09591842442750931 -0.11704589426517487
0.28095653653144836 -0.09616897255182266 -0.11497680097818375
0.28109678626060486 -0.09679305553436279 -0.11414916813373566
0.28054916858673096 -0.0971098318696022 -0.11304809153079987
0.2812340259552002 -0.09781280159950256 -0.11137939244508743
0.28053778409957886 -0.09830718487501144 -0.11042235791683197
0.27945661544799805 -0.10017913579940796 -0.10706909000873566
0.2775820791721344 -0.10222885012626648 -0.10225585848093033
0.2650609314441681 -0.10516219586133957 -0.09087157994508743
0.26424694061279297 -0.10536102205514908 -0.0867919921875
0.26425692439079285 -0.10575118660926819 -0.0859082043170929
0.2644151449203491 -0.10484328866004944 -0.08486571907997131
0.2634198069572449 -0.10462462902069092 -0.08354613929986954
0.2628802955150604 -0.10366729646921158 -0.07905395328998566
0.2566123306751251 -0.09760070592164993 -0.06901122629642487
0.25315043330192566 -0.0938609316945076 -0.06432861089706421
0.25015494227409363 -0.09174789488315582 -0.06159667670726776
0.24998536705970764 -0.09203414618968964 -0.06127319112420082
0.24789394438266754 -0.09256469458341599 -0.060692138969898224
0.23759175837039948 -0.09353652596473694 -0.05696044862270355
0.23364503681659698 -0.09461059421300888 -0.05537475645542145
0.2289610654115677 -0.09667541086673737 -0.053978271782398224
0.2256234735250473 -0.09817229956388474 -0.0535595677793026
0.22137700021266937 -0.1006263718008995 -0.05275512486696243
0.21416041254997253 -0.10511337220668793 -0.05308837816119194
0.2132655680179596 -0.10734619200229645 -0.053614500910043716
0.20946648716926575 -0.11169234663248062 -0.05415649339556694
0.20714479684829712 -0.1130482479929924 -0.05428466573357582
0.19882701337337494 -0.11645355075597763 -0.05080932378768921
0.19094374775886536 -0.11880996078252792 -0.04858764633536339
0.18665030598640442 -0.12207015603780746 -0.04880126938223839
0.18457256257534027 -0.1254800409078598 -0.051177978515625
0.1803910732269287 -0.12989379465579987 -0.05361572280526161
0.17535825073719025 -0.13435500860214233 -0.05678466707468033
0.16967186331748962 -0.14058974385261536 -0.06238159164786339
0.16545699536800385 -0.14470230042934418 -0.06620117276906967
0.1620335578918457 -0.14771483838558197 -0.069427490234375
0.15808343887329102 -0.15038040280342102 -0.07186279445886612
0.15116864442825317 -0.1534130871295929 -0.0724804699420929
0.1498725414276123 -0.15400268137454987 -0.0718701183795929
0.14530174434185028 -0.1570042371749878 -0.07086914032697678
0.14258599281311035 -0.16005782783031464 -0.06970702856779099
0.14124715328216553 -0.16209670901298523 -0.06836792081594467
0.14005893468856812 -0.16323654353618622 -0.06483520567417145
0.13856050372123718 -0.16364410519599915 -0.059783935546875
0.1380540281534195 -0.16407881677150726 -0.05739379674196243
0.1384374052286148 -0.1638319343328476 -0.055073242634534836
0.13713879883289337 -0.16379547119140625 -0.052196044474840164
0.13346892595291138 -0.1644975244998932 -0.043529052287340164
0.13000600039958954 -0.16556625068187714 -0.0333874486386776
0.13252615928649902 -0.16063353419303894 -0.03276977315545082
0.13387639820575714 -0.15464690327644348 -0.029670409858226776
0.13502955436706543 -0.14881545305252075 -0.026872558519244194
0.1372525990009308 -0.14407607913017273 -0.024678954854607582
0.1386447250843048 -0.1375991851091385 -0.02174072153866291
0.13997162878513336 -0.13121795654296875 -0.018144531175494194
0.1396346092224121 -0.1261209100484848 -0.014436034485697746
0.140250563621521 -0.11865875124931335 -0.009946288540959358
0.13917206227779388 -0.11453811079263687 -0.0071215820498764515
0.13856682181358337 -0.10972991585731506 -0.0012890624348074198
0.13744139671325684 -0.10787887126207352 0.0017041015671566129
0.13638009130954742 -0.10679198801517487 0.0044580078683793545
0.13407596945762634 -0.10641555488109589 0.009031982161104679
0.13269519805908203 -0.1059899851679802 0.010809325613081455
0.13111084699630737 -0.10503020882606506 0.016828613355755806
0.12733788788318634 -0.10306274145841599 0.026187743991613388
0.1262415498495102 -0.0988336130976677 0.033702392131090164
0.11994479596614838 -0.09812866151332855 0.04518188536167145
0.11449998617172241 -0.09906463325023651 0.05131225287914276
0.11210670322179794 -0.10114684700965881 0.05326659977436066
0.10989663004875183 -0.1050151064991951 0.05469360202550888
0.10982749611139297 -0.10763107240200043 0.05463866889476776
0.10979560017585754 -0.11133880168199539 0.053551025688648224
0.10891660302877426 -0.11433547735214233 0.05285278335213661
0.10993491858243942 -0.11862075328826904 0.05102172866463661
0.11090215295553207 -0.12249144911766052 0.046112060546875
0.1105055883526802 -0.12515456974506378 0.04221435636281967
0.110976941883564 -0.12783659994602203 0.03940063342452049
0.11280880868434906 -0.13169585168361664 0.034418944269418716
0.11332550644874573 -0.13465164601802826 0.0300451647490263
0.11455264687538147 -0.13867492973804474 0.025270994752645493
0.11471106857061386 -0.14094345271587372 0.021455077454447746
0.11581620573997498 -0.1437559425830841 0.017823485657572746
0.11666783690452576 -0.14527404308319092 0.015524902381002903
0.11703725904226303 -0.14805160462856293 0.013317870907485485
0.11699957400560379 -0.15182006359100342 0.011197509244084358
0.11615957319736481 -0.1528308093547821 0.010092773474752903
0.1173880323767662 -0.15569885075092316 0.007088623009622097
0.11770898848772049 -0.1588621437549591 0.0037023925688117743
0.11916091293096542 -0.16220641136169434 -0.002236328087747097
0.11979366093873978 -0.16446761786937714 -0.006539306603372097
0.12094828486442566 -0.16659286618232727 -0.008815918117761612
0.12029407173395157 -0.16725951433181763 -0.00893432553857565
0.1198170855641365 -0.16943083703517914 -0.009038086049258709
0.11831001192331314 -0.17173629999160767 -0.007940673269331455
0.11873923987150192 -0.17332229018211365 -0.007303466554731131
0.11769337207078934 -0.17564193904399872 -0.005196533165872097
0.1149917021393776 -0.1771165430545807 0.0016979980282485485
0.11351810395717621 -0.17784728109836578 0.007492675445973873
0.11217384040355682 -0.17721907794475555 0.01549682579934597
0.11162170022726059 -0.17450667917728424 0.020848387852311134
0.10983631759881973 -0.16907821595668793 0.028551025316119194
0.1093321219086647 -0.16668075323104858 0.033447265625
0.10919146984815598 -0.16050872206687927 0.03758178651332855
0.10827923566102982 -0.15227782726287842 0.04272216558456421
0.10883407294750214 -0.14527054131031036 0.047187499701976776
0.10650679469108582 -0.13814131915569305 0.05372314155101776
0.10698121786117554 -0.13071487843990326 0.05733032152056694
0.10580404102802277 -0.12437912076711655 0.06187133491039276
0.10516715049743652 -0.11897826939821243 0.06595825403928757
0.10260053724050522 -0.11476211249828339 0.07199951261281967
0.10156189650297165 -0.1121257022023201 0.0763232409954071
0.10078995674848557 -0.10966033488512039 0.0801721140742302
0.09957072883844376 -0.10858917236328125 0.084259033203125
0.09721770882606506 -0.10826049745082855 0.0911865234375
0.09129313379526138 -0.1089811697602272 0.09999755769968033
0.08873851597309113 -0.11084670573472977 0.10704711824655533
0.08582273125648499 -0.11125777661800385 0.11210082471370697
0.08271501213312149 -0.11361205577850342 0.11823730170726776
0.08006054908037186 -0.11601012945175171 0.12174926698207855
0.07705958932638168 -0.11906997114419937 0.1263403296470642
0.07573260366916656 -0.12130111455917358 0.1279272437095642
0.07543051242828369 -0.12114211916923523 0.12779541313648224
0.07537160068750381 -0.1242840513586998 0.12859252095222473
0.0740729570388794 -0.12769775092601776 0.13105712831020355
0.07308538258075714 -0.1298506110906601 0.13487182557582855
0.07080534100532532 -0.13265074789524078 0.13850708305835724
0.06967385858297348 -0.13535140454769135 0.1398645043373108
0.06726320087909698 -0.14048080146312714 0.1414770483970642
0.06515635550022125 -0.14661437273025513 0.14234130084514618
0.0635262206196785 -0.1505490094423294 0.1433093249797821
0.06282658874988556 -0.15376144647598267 0.14347900450229645
0.06365366280078888 -0.15776565670967102 0.14134521782398224
0.06354594230651855 -0.16053420305252075 0.1396142542362213
0.06286290287971497 -0.16325820982456207 0.13899901509284973
0.06378820538520813 -0.1671171486377716 0.1362341344356537
0.06507924199104309 -0.17051222920417786 0.13462646305561066
0.06594549119472504 -0.17406676709651947 0.13234618306159973
0.06695237755775452 -0.17743819952011108 0.12950195372104645
0.06715922057628632 -0.1800379902124405 0.12757690250873566
0.07008880376815796 -0.18410827219486237 0.1235375925898552
0.07304482907056808 -0.18826018273830414 0.11988647282123566
0.07631931453943253 -0.19379973411560059 0.11393554508686066
0.07857537269592285 -0.19913817942142487 0.10727416723966599
0.08214113116264343 -0.20503371953964233 0.10074828565120697
0.08225645869970322 -0.20962020754814148 0.09749756008386612
0.08290815353393555 -0.2129482924938202 0.09697753936052322
0.08093596994876862 -0.21667617559432983 0.09931152313947678
0.0775052160024643 -0.22133316099643707 0.10363402962684631
0.07436263561248779 -0.2235957235097885 0.10700805485248566
0.07104898989200592 -0.22258712351322174 0.11102782934904099
0.06913070380687714 -0.21952803432941437 0.1149316355586052
0.06742294877767563 -0.21564804017543793 0.11937011778354645
0.05904673784971237 -0.20924407243728638 0.1281140148639679
0.05271494388580322 -0.20205368101596832 0.13575439155101776
0.04978226497769356 -0.19910918176174164 0.1396166980266571
0.05426059663295746 -0.18093016743659973 0.14276854693889618
0.05794961005449295 -0.17459610104560852 0.1417590230703354
0.057133425027132034 -0.16644622385501862 0.1455700695514679
0.06114117428660393 -0.15934981405735016 0.1447497457265854
0.062491290271282196 -0.15065185725688934 0.14539550244808197
0.06372617930173874 -0.1438809186220169 0.14619018137454987
0.06414055079221725 -0.13714081048965454 0.14814452826976776
0.06385697424411774 -0.13167770206928253 0.15103881061077118
0.061712443828582764 -0.12804794311523438 0.15520507097244263
0.06095665693283081 -0.12300002574920654 0.15943481028079987
0.06116332858800888 -0.11835189908742905 0.16432860493659973
0.06309719383716583 -0.1153968796133995 0.1678820699453354
0.062873974442482 -0.11305755376815796 0.17330199480056763
0.06383306533098221 -0.11140044778585434 0.17689819633960724
0.06509307026863098 -0.11066314578056335 0.18233032524585724
0.06497395038604736 -0.11087722331285477 0.18657836318016052
0.06483151018619537 -0.11142806708812714 0.19175781309604645
0.06434711813926697 -0.110834039747715 0.1978185921907425
0.0641443058848381 -0.11032211035490036 0.20078612864017487
0.05906008556485176 -0.11418533325195312 0.20396606624126434
0.05834094062447548 -0.11557082831859589 0.20512084662914276
0.05745813250541687 -0.11748794466257095 0.20476683974266052
0.050400879234075546 -0.12095336616039276 0.20549437403678894
0.04479493200778961 -0.12210128456354141 0.20680297911167145
0.042476311326026917 -0.12242431193590164 0.20765869319438934
0.04165099188685417 -0.12223174422979355 0.20812132954597473
0.040799643844366074 -0.12317092716693878 0.20795775949954987
0.0338270328938961 -0.12200164794921875 0.20741820335388184
0.0320730097591877 -0.12218230962753296 0.2058435082435608
0.031744297593832016 -0.1228790283203125 0.20463378727436066
0.03177126497030258 -0.12275024503469467 0.20503905415534973
0.031017575412988663 -0.12293166667222977 0.20442503690719604
0.030941156670451164 -0.12275344878435135 0.20493285357952118
0.03242290019989014 -0.12270751595497131 0.20417724549770355
0.02764390967786312 -0.12453887611627579 0.20589476823806763
0.02617412433028221 -0.12461791932582855 0.20656737685203552
0.026277698576450348 -0.12502548098564148 0.20671996474266052
0.023128103464841843 -0.12596404552459717 0.20464354753494263
0.020150337368249893 -0.12595641613006592 0.20326294004917145
0.015399746596813202 -0.12607315182685852 0.19999878108501434
0.00950632058084011 -0.1262412965297699 0.19713377952575684
0.0057191369123756886 -0.1256590187549591 0.1944323629140854
0.005838022101670504 -0.1267976313829422 0.19080565869808197
0.004738893359899521 -0.1286918669939041 0.18751220405101776
0.004379091318696737 -0.1305699199438095 0.18293578922748566
0.0038004254456609488 -0.13345488905906677 0.17778685688972473
0.0019655751530081034 -0.1356448382139206 0.17255736887454987
0.002648815978318453 -0.13988052308559418 0.1680639684200287
0.0018318939255550504 -0.14377883076667786 0.16447874903678894
0.00324823847040534 -0.14716826379299164 0.16247069835662842
0.002938294317573309 -0.15207183361053467 0.15898680686950684
0.003259963821619749 -0.1547248810529709 0.15813598036766052
0.005217709578573704 -0.159657284617424 0.15587645769119263
0.003601465141400695 -0.16268706321716309 0.1542321741580963
0.005985260009765625 -0.16575469076633453 0.15299804508686066
0.00420626625418663 -0.16802428662776947 0.15144287049770355
0.00177142140455544 -0.16899551451206207 0.14903685450553894
-0.0014591979561373591 -0.1714630126953125 0.14541015028953552
-0.0035010718274861574 -0.17546691000461578 0.14061157405376434
-0.0038363789208233356 -0.17679397761821747 0.13985595107078552
-0.004838700406253338 -0.17715957760810852 0.13991454243659973
-0.004435515496879816 -0.17978499829769135 0.1399243175983429
-0.0028388595674186945 -0.18314895033836365 0.1394677758216858
0.00010303973976988345 -0.1879511922597885 0.14096800982952118
0.0008678388549014926 -0.19130462408065796 0.14011596143245697
0.001963982591405511 -0.19545333087444305 0.14011596143245697
0.0026928328443318605 -0.19793380796909332 0.1402636617422104
0.002358784666284919 -0.20158080756664276 0.13799437880516052
0.001984400674700737 -0.20467132329940796 0.13755859434604645
0.002270760480314493 -0.2073916643857956 0.13745848834514618
0.0025964640080928802 -0.20958785712718964 0.13679198920726776
0.003928694408386946 -0.21216827630996704 0.13670897483825684
0.0064299628138542175 -0.21597212553024292 0.1369665563106537
0.009308237582445145 -0.2211650013923645 0.13661864399909973
0.007860059849917889 -0.2228207290172577 0.13550536334514618
0.011239943094551563 -0.22815535962581635 0.13544799387454987
0.0032519435044378042 -0.22839614748954773 0.13263548910617828
0.002715372946113348 -0.229877308011055 0.13225585222244263
0.0017817973857745528 -0.2307186871767044 0.13245971500873566
0.0029110717587172985 -0.2330874651670456 0.13136230409145355
-0.004175228998064995 -0.23496215045452118 0.12825560569763184
-0.008443479426205158 -0.23566420376300812 0.12548217177391052
-0.00884754117578268 -0.23779845237731934 0.12336425483226776
-0.011642465367913246 -0.2381414771080017 0.1208178699016571
-0.011698550544679165 -0.23802398145198822 0.12070678174495697
-0.010866698808968067 -0.23784880340099335 0.12090453505516052
-0.012395371682941914 -0.23667830228805542 0.12159545719623566
-0.01705874316394329 -0.23170791566371918 0.12021362036466599
-0.02044016867876053 -0.22814743220806122 0.11674438416957855
-0.02400682307779789 -0.2234666347503662 0.11247435957193375
-0.025753553956747055 -0.21755385398864746 0.10945434123277664
-0.026581009849905968 -0.21364150941371918 0.10964599251747131
-0.02633075602352619 -0.2101728767156601 0.11040405184030533
-0.026868438348174095 -0.2049911469221115 0.10981689393520355
-0.02676156908273697 -0.20128875970840454 0.11014526337385178
-0.024660881608724594 -0.19837188720703125 0.11259032785892487
-0.023501919582486153 -0.1951013207435608 0.11497802287340164
-0.02459356188774109 -0.1909613013267517 0.11652343720197678
-0.021414002403616905 -0.1877923607826233 0.11943725496530533
-0.022035207599401474 -0.1818595826625824 0.12307250499725342
-0.01858254335820675 -0.1742829829454422 0.12858642637729645
-0.01741909049451351 -0.17032180726528168 0.13165892660617828
-0.017274627462029457 -0.16356277465820312 0.13442504405975342
-0.016298875212669373 -0.15856033563613892 0.13677367568016052
-0.016750583425164223 -0.15093718469142914 0.13752929866313934
-0.01742284744977951 -0.14567764103412628 0.14028197526931763
-0.017675504088401794 -0.14062103629112244 0.1409948766231537
-0.018302878364920616 -0.13771605491638184 0.1387622058391571
-0.020211027935147285 -0.13499587774276733 0.13703979551792145
-0.021043386310338974 -0.13185088336467743 0.1350427269935608
-0.02266831323504448 -0.12909622490406036 0.1326586902141571
-0.02298731729388237 -0.1291070580482483 0.13104248046875
-0.02483901008963585 -0.12830780446529388 0.12889404594898224
-0.026286887004971504 -0.12718963623046875 0.12520506978034973
-0.02798454277217388 -0.1265093982219696 0.12298583984375
-0.030995769426226616 -0.12444762885570526 0.12007934600114822
-0.03425557166337967 -0.12293776869773865 0.11504272371530533
-0.03717019036412239 -0.12134124338626862 0.11192748695611954
-0.03743951767683029 -0.1208367869257927 0.11013305187225342
-0.03884848579764366 -0.11987274140119553 0.10950195044279099
-0.03941258415579796 -0.11969329416751862 0.10927245765924454
-0.04070991277694702 -0.11904677748680115 0.10786254703998566
-0.047903452068567276 -0.11877700686454773 0.09711425751447678
-0.05091182515025139 -0.12079009413719177 0.08924315869808197
-0.05510439723730087 -0.12184341251850128 0.0788891613483429
-0.05693497508764267 -0.12199477851390839 0.07264892756938934
-0.05857866257429123 -0.12280410528182983 0.0698254406452179
-0.060566242784261703 -0.12275145947933197 0.06053466722369194
-0.06059274449944496 -0.12434951215982437 0.06013183295726776
-0.06229826807975769 -0.12666457891464233 0.056791990995407104
-0.0630641058087349 -0.1299925148487091 0.05375976487994194
-0.0604013130068779 -0.13539718091487885 0.054237060248851776
-0.05768825486302376 -0.14085936546325684 0.052955321967601776
-0.05602637305855751 -0.14613007009029388 0.05474242940545082
-0.054062824696302414 -0.15075407922267914 0.05785522237420082
-0.05071291700005531 -0.1565820276737213 0.06331665068864822
-0.046331919729709625 -0.16065719723701477 0.06557860970497131
-0.046742964535951614 -0.1610032618045807 0.06534790247678757
-0.04603331536054611 -0.1627432256937027 0.06640625
-0.04724443331360817 -0.16257552802562714 0.06805907934904099
-0.044797953218221664 -0.16470763087272644 0.07275146245956421
-0.04017812758684158 -0.16676375269889832 0.08342284709215164
-0.03892619162797928 -0.16650192439556122 0.08822997659444809
-0.03497055917978287 -0.1698513776063919 0.095977783203125
-0.03471928462386131 -0.17233321070671082 0.0971386730670929
-0.034066878259181976 -0.17365676164627075 0.09702026098966599
-0.036042220890522 -0.17767135798931122 0.09516845643520355
-0.03741981461644173 -0.18028518557548523 0.09310058504343033
-0.038130633533000946 -0.186115562915802 0.09183105081319809
-0.037866465747356415 -0.1892748922109604 0.0925585925579071
-0.038863420486450195 -0.19248901307582855 0.09153319895267487
-0.03856799006462097 -0.19354248046875 0.0907617136836052
-0.03888469561934471 -0.19561325013637543 0.0891406238079071
-0.038490209728479385 -0.19697478413581848 0.08772094547748566
-0.03915197402238846 -0.19817215204238892 0.08672241121530533
-0.039364319294691086 -0.20007385313510895 0.0868518054485321
-0.03973422944545746 -0.20104354619979858 0.08598266541957855
-0.0418751984834671 -0.2006179690361023 0.08231811225414276
-0.04279675334692001 -0.19933363795280457 0.07862060517072678
-0.04226255416870117 -0.2003137171268463 0.07769042998552322
-0.04383884370326996 -0.2017785608768463 0.07601074129343033
-0.04492678493261337 -0.20325759053230286 0.0733972117304802
-0.04398399218916893 -0.20391692221164703 0.0728784129023552
-0.044801559299230576 -0.2033451795578003 0.07282226532697678
-0.043375883251428604 -0.2038937360048294 0.0726953074336052
-0.04350012540817261 -0.20397338271141052 0.07309814542531967
-0.04521988704800606 -0.20320174098014832 0.07275756448507309
-0.04510543867945671 -0.20303863286972046 0.07301757484674454
-0.04316946864128113 -0.20410217344760895 0.07265014201402664
-0.044545095413923264 -0.20283415913581848 0.07317505031824112
-0.04510367289185524 -0.2024696320295334 0.0731518566608429
-0.044981516897678375 -0.20289595425128937 0.0730273425579071
-0.04562640190124512 -0.20233824849128723 0.07300170511007309
-0.0455879308283329 -0.2026173323392868 0.07295898348093033
-0.04533311724662781 -0.20222777128219604 0.0732409656047821
-0.04608739912509918 -0.20191726088523865 0.07290160655975342
-0.0450417697429657 -0.20257994532585144 0.0732434093952179
-0.044666290283203125 -0.20263031125068665 0.07306518405675888
-0.04443110525608063 -0.20263351500034332 0.0729992687702179
-0.044364508241415024 -0.20206253230571747 0.07317138463258743
-0.04353554546833038 -0.19481444358825684 0.07498656958341599
-0.04442070052027702 -0.1835290491580963 0.07697997987270355
-0.04427608475089073 -0.17801406979560852 0.07632201910018921
-0.044063031673431396 -0.1746731549501419 0.07608886808156967
-0.044583700597286224 -0.17131590843200684 0.07393798977136612
-0.04470689594745636 -0.16952911019325256 0.07269287109375
-0.045458488166332245 -0.16591155529022217 0.06910400092601776
-0.04727545753121376 -0.16320312023162842 0.06342773139476776
-0.04668261483311653 -0.16314391791820526 0.06387084722518921
-0.04649246111512184 -0.16422057151794434 0.06318115442991257
-0.04802694171667099 -0.165679931640625 0.06087280064821243
-0.05097493156790733 -0.16906219720840454 0.056232910603284836
-0.05486220121383667 -0.17050063610076904 0.045927733182907104
-0.05644351989030838 -0.1695396453142166 0.04597412049770355
-0.05652538314461708 -0.16970336437225342 0.04566283896565437
-0.05752970650792122 -0.17073409259319305 0.04492553696036339
-0.061407335102558136 -0.17694275081157684 0.03705688565969467
-0.06431739777326584 -0.17980636656284332 0.03182006627321243
-0.066484734416008 -0.180816188454628 0.028103027492761612
-0.07028517872095108 -0.1799919158220291 0.023011473938822746
-0.0712282583117485 -0.18052458763122559 0.01808471605181694
-0.07302270829677582 -0.17963974177837372 0.01638183556497097
-0.07334564626216888 -0.17662948369979858 0.015927733853459358
-0.0738409236073494 -0.1722976714372635 0.014345702715218067
-0.07326718419790268 -0.16933304071426392 0.015560301952064037
-0.0727580338716507 -0.1644328236579895 0.018748778849840164
-0.0726567730307579 -0.1608593761920929 0.02053222618997097
-0.07011299580335617 -0.15273131430149078 0.027476806193590164
-0.06998531520366669 -0.14698532223701477 0.029885252937674522
-0.06957413256168365 -0.13511855900287628 0.03350219503045082
-0.06872623413801193 -0.13227508962154388 0.031191404908895493
-0.06804351508617401 -0.1315324306488037 0.03147338703274727
-0.0707063376903534 -0.13068236410617828 0.03142699971795082
-0.0698246881365776 -0.13153702020645142 0.03088989108800888
-0.07027718424797058 -0.13091155886650085 0.030714111402630806
-0.07133670896291733 -0.13115142285823822 0.030174558982253075
-0.07007792592048645 -0.13196930289268494 0.029527587816119194
-0.07446898519992828 -0.1312178075313568 0.024077147245407104
-0.07667221873998642 -0.13161712884902954 0.020201414823532104
-0.07792330533266068 -0.13321959972381592 0.016157226637005806
-0.07778089493513107 -0.133117213845253 0.016311034560203552
-0.0789853110909462 -0.1330859363079071 0.015953369438648224
-0.07888641208410263 -0.13405990600585938 0.015158691443502903
-0.08280625194311142 -0.13802535831928253 0.004935302771627903
-0.08331261575222015 -0.13759537041187286 0.006298827938735485
-0.08415409177541733 -0.1371418684720993 0.006180419586598873
-0.08424413204193115 -0.1371147185564041 0.005605468526482582
-0.08389106392860413 -0.13744384050369263 0.005854492075741291
-0.08778852969408035 -0.138527974486351 0.005544433370232582
-0.10048370063304901 -0.14191344380378723 -0.009537353180348873
-0.10140424221754074 -0.14331680536270142 -0.008957519195973873
-0.10084936022758484 -0.1434028595685959 -0.010104980319738388
-0.10165675729513168 -0.14268432557582855 -0.010245361365377903
-0.10161901265382767 -0.14292815327644348 -0.009927978739142418
-0.1012636125087738 -0.1424609273672104 -0.009970703162252903
-0.10320115834474564 -0.1380174160003662 -0.009974365122616291
-0.10726942121982574 -0.13401885330677032 -0.01475830003619194
-0.11004474759101868 -0.13217727839946747 -0.0164038073271513
-0.11062904447317123 -0.13135161995887756 -0.015413817949593067
-0.114737868309021 -0.1269444227218628 -0.014046630822122097
-0.11532185971736908 -0.12381789833307266 -0.013117675669491291
-0.11702733486890793 -0.12163833528757095 -0.011265869252383709
-0.11865146458148956 -0.11949721723794937 -0.010014648549258709
-0.12199725955724716 -0.11759063601493835 -0.010633544996380806
-0.12820397317409515 -0.11576613783836365 -0.012824706733226776
-0.13276632130146027 -0.11556197702884674 -0.016978759318590164
-0.13710173964500427 -0.11395873874425888 -0.018416747450828552
-0.14380167424678802 -0.11247909069061279 -0.02122802659869194
-0.1478324979543686 -0.11199890077114105 -0.023878173902630806
-0.14993765950202942 -0.11366195231676102 -0.026851806789636612
-0.1542835831642151 -0.11644347757101059 -0.03221435472369194
-0.15614835917949677 -0.11941268295049667 -0.03489990159869194
-0.15748988091945648 -0.12293517589569092 -0.03794555738568306
-0.15450944006443024 -0.1256115734577179 -0.03813720494508743
-0.14895550906658173 -0.13115371763706207 -0.03736816346645355
-0.1480594277381897 -0.13474029302597046 -0.038884274661540985
-0.14529570937156677 -0.142497256398201 -0.04400390386581421
-0.14220093190670013 -0.14846664667129517 -0.04827270284295082
-0.14015105366706848 -0.15297530591487885 -0.052607420831918716
-0.14098607003688812 -0.15463760495185852 -0.054938964545726776
-0.13999170064926147 -0.15554428100585938 -0.05545898154377937
-0.13911379873752594 -0.15535445511341095 -0.056068114936351776
-0.14764931797981262 -0.1525886505842209 -0.061656493693590164
-0.15354643762111664 -0.15127348899841309 -0.06733886897563934
-0.15429282188415527 -0.15104888379573822 -0.06782836467027664
-0.1568760871887207 -0.1501522809267044 -0.069671630859375
-0.1625610888004303 -0.14796005189418793 -0.07206420600414276
-0.16798827052116394 -0.146126851439476 -0.07461059093475342
-0.16873449087142944 -0.14543746411800385 -0.07558959722518921
-0.17271919548511505 -0.1428118795156479 -0.07451415807008743
-0.17661434412002563 -0.14108550548553467 -0.07375121861696243
-0.18032808601856232 -0.13746367394924164 -0.06905761361122131
-0.18335218727588654 -0.13179336488246918 -0.06291382014751434
-0.18223457038402557 -0.125782772898674 -0.055418699979782104
-0.18071994185447693 -0.12096297740936279 -0.050898436456918716
-0.18089990317821503 -0.11769057810306549 -0.04819701984524727
-0.18010683357715607 -0.11659789830446243 -0.0473034642636776
-0.18088398873806 -0.11433731019496918 -0.04533325135707855
-0.18301059305667877 -0.1104113757610321 -0.04308105260133743
-0.18320336937904358 -0.10825774818658829 -0.041706543415784836
-0.18954430520534515 -0.10555053502321243 -0.04217163100838661
-0.1984754353761673 -0.10449142009019852 -0.04608398303389549
-0.209664449095726 -0.1033782958984375 -0.048878174275159836
-0.21325132250785828 -0.10365020483732224 -0.050273437052965164
-0.21543966233730316 -0.10509338229894638 -0.05212157964706421
-0.22018037736415863 -0.10600417852401733 -0.054558105766773224
-0.22152724862098694 -0.10831619054079056 -0.05662475526332855
-0.22550135850906372 -0.11055953800678253 -0.05992065370082855
-0.22846804559230804 -0.1122712716460228 -0.06236327812075615
-0.23198609054088593 -0.11486998945474625 -0.06584106385707855
-0.2346886843442917 -0.11494064331054688 -0.06735839694738388
-0.2355634868144989 -0.11642272770404816 -0.06901122629642487
-0.23947204649448395 -0.11723083257675171 -0.07155273109674454
-0.24410760402679443 -0.11890151351690292 -0.07626952975988388
-0.24509383738040924 -0.11814407259225845 -0.07684936374425888
-0.2490978240966797 -0.11812683194875717 -0.07901733368635178
-0.24865436553955078 -0.11885375529527664 -0.07922118902206421
-0.2503211796283722 -0.11764312535524368 -0.07904052734375
-0.2572269141674042 -0.11604491621255875 -0.07680542021989822
-0.255293607711792 -0.11669845134019852 -0.07664916664361954
-0.2566448152065277 -0.11548659950494766 -0.0759875476360321
-0.25622111558914185 -0.11619949340820312 -0.0764453113079071
-0.2559635043144226 -0.11632659286260605 -0.07680175453424454
-0.2579178810119629 -0.11579589545726776 -0.07545043528079987
-0.2646976709365845 -0.11604415625333786 -0.07079467922449112
-0.27120688557624817 -0.1149015799164772 -0.06870849430561066
-0.27370360493659973 -0.11508483439683914 -0.06983276456594467
-0.2764873206615448 -0.11440490186214447 -0.06926025450229645
-0.2784411609172821 -0.11405929177999496 -0.06908325105905533
-0.2795471251010895 -0.11290664225816727 -0.06778686493635178
-0.2815230190753937 -0.11248290538787842 -0.06707397103309631
-0.2882799804210663 -0.11024627089500427 -0.06426757574081421
-0.2910478115081787 -0.10582610964775085 -0.0586560033261776
-0.29800018668174744 -0.09574782848358154 -0.05427612364292145
-0.301931232213974 -0.09185516089200974 -0.054423827677965164
-0.3054133653640747 -0.08984359353780746 -0.0536816380918026
-0.3100062608718872 -0.08981109410524368 -0.05369384586811066
-0.31608089804649353 -0.08875778317451477 -0.05422729253768921
-0.31774356961250305 -0.08831328898668289 -0.05458129942417145
-0.321806401014328 -0.08998824656009674 -0.05480590835213661
-0.32378050684928894 -0.0919964611530304 -0.05513549596071243
-0.3267084062099457 -0.09149810671806335 -0.0545666478574276
-0.3290192484855652 -0.09334640204906464 -0.05572509765625
-0.3304368257522583 -0.09460525214672089 -0.05538696050643921
-0.33216506242752075 -0.09683501720428467 -0.055473633110523224
-0.3323737680912018 -0.10060256719589233 -0.058677978813648224
-0.3330269455909729 -0.10083068907260895 -0.05869872868061066
-0.33264243602752686 -0.1024557501077652 -0.059718016535043716
-0.3353554606437683 -0.1061207577586174 -0.062835693359375
-0.33972397446632385 -0.10827086865901947 -0.06566040217876434
-0.343337744474411 -0.11047286540269852 -0.07034789770841599
-0.3483860194683075 -0.11227096617221832 -0.07752685248851776
-0.35318735241889954 -0.1126803532242775 -0.09540649503469467
-0.35224485397338867 -0.112481988966465 -0.09493163973093033
-0.35388681292533875 -0.11284301429986954 -0.09213622659444809
-0.3549787104129791 -0.11326552927494049 -0.0894177258014679
-0.361932635307312 -0.11172515898942947 -0.08470580726861954
-0.3624750077724457 -0.11165298521518707 -0.08343993872404099
-0.3664077818393707 -0.11083205789327621 -0.0813281238079071
-0.36899352073669434 -0.11034484952688217 -0.07850830256938934
-0.3722201883792877 -0.10928848385810852 -0.07734619081020355
-0.3746764659881592 -0.10730468481779099 -0.07359130680561066
-0.3786408007144928 -0.10447723418474197 -0.06967528909444809
-0.3825819194316864 -0.10052474588155746 -0.06525634974241257
-0.38536331057548523 -0.09785323590040207 -0.062236327677965164
-0.3894723355770111 -0.0938551276922226 -0.05964111164212227
-0.39343705773353577 -0.09064605832099915 -0.05696044862270355
-0.39704403281211853 -0.08661758154630661 -0.05524291843175888
-0.3987677991390228 -0.08225204050540924 -0.0517590306699276
-0.3985835611820221 -0.07894012331962585 -0.049187012016773224
-0.401726096868515 -0.07556762546300888 -0.04716430604457855
-0.40299856662750244 -0.07215698063373566 -0.04544433578848839
-0.4042713940143585 -0.06779433786869049 -0.041777342557907104
-0.4061845541000366 -0.06283736974000931 -0.03863769397139549
-0.40771475434303284 -0.060763243585824966 -0.037102051079273224
-0.4112425446510315 -0.05726989731192589 -0.03462280333042145
-0.41650038957595825 -0.05725677311420441 -0.03382934629917145
-0.42005378007888794 -0.055492859333753586 -0.0335705541074276
