1.916085038874628310e+01 -2.142346313048821571e+02 -1.280188968840495136e+03
1.921281350508093766e+01 -2.146620723973940414e+02 -1.280467838518638246e+03
1.912544189903263003e+01 -2.151563595542721146e+02 -1.280654126976297675e+03
1.862318945606777731e+01 -2.157883456549579080e+02 -1.280734702185482774e+03
1.790610674071798769e+01 -2.164389326727707612e+02 -1.280771615730997382e+03
1.745474219435953955e+01 -2.173079019996914383e+02 -1.280968639726129823e+03
1.706121193244866419e+01 -2.182000138389029757e+02 -1.281229927312804193e+03
1.703621241328426095e+01 -2.193080301443206395e+02 -1.281825437831639420e+03
1.679697595906085184e+01 -2.201806122168887612e+02 -1.282266902982678630e+03
1.685374527684763279e+01 -2.209857371084056297e+02 -1.282704518171553673e+03
1.700965077202491216e+01 -2.215460120451789408e+02 -1.283179959214450037e+03
1.725695665535871370e+01 -2.220539356936504021e+02 -1.283596972844903348e+03
1.764688490639931473e+01 -2.224760607276678854e+02 -1.284124473026305168e+03
1.840412631497141405e+01 -2.227398666599542025e+02 -1.284596944412839775e+03
1.915408404887564586e+01 -2.228128064171499432e+02 -1.285075976078316444e+03
2.006439397764217603e+01 -2.227663415215047564e+02 -1.285542450389541727e+03
2.095074706216929172e+01 -2.226518767081481087e+02 -1.285985106123146579e+03
2.163442704635829017e+01 -2.224865053686871761e+02 -1.286163471951835845e+03
2.245283957125273133e+01 -2.222203763726298291e+02 -1.286404750161393167e+03
2.295855031370935961e+01 -2.218593050586096069e+02 -1.286436164872552808e+03
2.336203166001177323e+01 -2.213310494549738792e+02 -1.286421877173861049e+03
2.406795384544294336e+01 -2.209943315154509662e+02 -1.286548758493816877e+03
2.430823026567821898e+01 -2.205815212962496901e+02 -1.286478194662522583e+03
2.447618720817952465e+01 -2.201424864872015803e+02 -1.286336753840268102e+03
2.473190657101553569e+01 -2.196889470764317593e+02 -1.286180579627977750e+03
2.494481879119513223e+01 -2.191663719919515927e+02 -1.285977263331694076e+03
2.493754693488052965e+01 -2.187121968719342249e+02 -1.285735773468309844e+03
2.491656697971533418e+01 -2.182764093320443806e+02 -1.285467027089066733e+03
2.463386194721318390e+01 -2.176946112602035157e+02 -1.285020607112025345e+03
2.462190655595060917e+01 -2.173454816138216756e+02 -1.284816619635058260e+03
2.437602120399193240e+01 -2.167743757377363920e+02 -1.284424002170187578e+03
2.441924163694719851e+01 -2.162681986829193761e+02 -1.284218192103264300e+03
2.467016286114570534e+01 -2.157782888475452410e+02 -1.284045065507440540e+03
2.488899351612995758e+01 -2.152517649207725583e+02 -1.283896012800081280e+03
2.519873971196020790e+01 -2.145996069188672095e+02 -1.283845193234054250e+03
2.568122830218902664e+01 -2.139855233179901290e+02 -1.283789327893316567e+03
2.618823524048384854e+01 -2.134384468016777134e+02 -1.283927064358047573e+03
2.697567214318391393e+01 -2.128120400971617414e+02 -1.284190067992790773e+03
2.782952719549517440e+01 -2.122916680755035372e+02 -1.284498237934345070e+03
2.850724772349752811e+01 -2.118944345623859249e+02 -1.284822765960479956e+03
2.920605832380626055e+01 -2.116016113183941627e+02 -1.285182372898137601e+03
2.962063806463986992e+01 -2.113716355566971572e+02 -1.285489738710704387e+03
3.037349277693542504e+01 -2.112729919839233617e+02 -1.285904925572296406e+03
3.090614890819565375e+01 -2.111294802544386755e+02 -1.286324911020974014e+03
3.168936259064881611e+01 -2.110870873773172320e+02 -1.286955540579321905e+03
3.205252778794135793e+01 -2.110214996110925654e+02 -1.287324105586871383e+03
3.260964180206342178e+01 -2.111271220712446564e+02 -1.287921304135727723e+03
3.292523363733071307e+01 -2.112797793895907148e+02 -1.288196968983823581e+03
3.318892572151921883e+01 -2.116052139872941495e+02 -1.288680636009815316e+03
3.323187786595470072e+01 -2.118561015513342909e+02 -1.288976962207299948e+03
3.339913771371787021e+01 -2.122155407054876264e+02 -1.289288155955299089e+03
3.332075968481132122e+01 -2.128730056358546392e+02 -1.289596660782213121e+03
3.283420845565148483e+01 -2.135778102960113358e+02 -1.289641764620243293e+03
3.212695305877812757e+01 -2.147683344579101856e+02 -1.289428605270210483e+03
3.080957351338780725e+01 -2.161397332631796075e+02 -1.288926204279893682e+03
2.936611661340266011e+01 -2.174072271082426653e+02 -1.288360182407458524e+03
2.860716152168728854e+01 -2.183682361307578219e+02 -1.288166953484611213e+03
2.845241486371051565e+01 -2.188083411461501271e+02 -1.288416988690964672e+03
2.905450849592853757e+01 -2.193338089195867724e+02 -1.289222400717386563e+03
3.000510296384684494e+01 -2.195401711663355400e+02 -1.290355734065375600e+03
3.136447321945625433e+01 -2.194385323115925814e+02 -1.291638297665492701e+03
3.243110640845459614e+01 -2.190506642350490836e+02 -1.292590805184130431e+03
3.327865041277066638e+01 -2.185276998955289685e+02 -1.293347963260500137e+03
3.409423924574127795e+01 -2.178655761673178404e+02 -1.294055984954705991e+03
3.492233809913278009e+01 -2.170968284013976017e+02 -1.294553319269418580e+03
3.567647350048076760e+01 -2.162188165337526868e+02 -1.294801614564676811e+03
3.610709484758819343e+01 -2.151409448688530688e+02 -1.294845270396776868e+03
3.685918254663215521e+01 -2.139012132856210826e+02 -1.294838014738714719e+03
3.750253612134277148e+01 -2.126939080020687243e+02 -1.294785799884852850e+03
3.812059137395841901e+01 -2.117593568658280958e+02 -1.294934468737488942e+03
3.865893284963645016e+01 -2.111132871004384981e+02 -1.295292038071499974e+03
3.916742322888916306e+01 -2.108793362166701399e+02 -1.295894251844898008e+03
3.942687298347111380e+01 -2.108405045953288948e+02 -1.296391375560396000e+03
3.960772886214815003e+01 -2.110387470893540751e+02 -1.296895338420016969e+03
3.964019646992950641e+01 -2.112556848942917895e+02 -1.297256504154557206e+03
3.959729733218192393e+01 -2.116574981071327670e+02 -1.297661181611495977e+03
3.961253606435117547e+01 -2.122477415437382433e+02 -1.298224162141488932e+03
3.952903887590105114e+01 -2.129070612377130942e+02 -1.298827196795919690e+03
3.936557697865762151e+01 -2.135208077865849816e+02 -1.299311460311552992e+03
3.926784151123675315e+01 -2.142666997550365693e+02 -1.299864689790631246e+03
3.910832006835883590e+01 -2.149435990546820960e+02 -1.300262150101164480e+03
3.879802684309080973e+01 -2.156563343721096260e+02 -1.300463353603683117e+03
3.833423352720423338e+01 -2.163388566902244747e+02 -1.300534800363366003e+03
3.782623247375503439e+01 -2.171286524483720939e+02 -1.300522046416494732e+03
3.728713621499872488e+01 -2.179600329266195331e+02 -1.300502706616285650e+03
3.675027413874744298e+01 -2.189524081886773956e+02 -1.300417049806078921e+03
3.622838656444964300e+01 -2.198293271663433757e+02 -1.300437885990432505e+03
3.569147897679310688e+01 -2.205244079230647856e+02 -1.300433933588649097e+03
3.521894641546163029e+01 -2.212048062598100273e+02 -1.300354285786159835e+03
3.462036252097253453e+01 -2.217738846727999942e+02 -1.300001796224966483e+03
3.401995726579620793e+01 -2.222319563571382730e+02 -1.299282602782013555e+03
3.346877992934143009e+01 -2.224987492061845842e+02 -1.298459670845825030e+03
3.306240785593436726e+01 -2.225027664072575249e+02 -1.297523951786096177e+03
3.265599494817273296e+01 -2.224615592942884916e+02 -1.296637341989707238e+03
3.207258653598965736e+01 -2.222737648366273220e+02 -1.295606847448654207e+03
3.185429745911323351e+01 -2.222362613327478869e+02 -1.294834768041154575e+03
3.133234115438967393e+01 -2.221991656449997379e+02 -1.294239804323172621e+03
3.095105649471135223e+01 -2.221945918741484434e+02 -1.293702239301171403e+03
3.043187991565864081e+01 -2.223712765005457754e+02 -1.293136020235442402e+03
2.963590573298453990e+01 -2.226606700921092852e+02 -1.292464571419577396e+03
2.895168689659118400e+01 -2.229613340964274641e+02 -1.292022228973338542e+03
2.837670105912793161e+01 -2.233833121539956039e+02 -1.291840868802138175e+03
2.820116525167136245e+01 -2.239052745056365268e+02 -1.292127060360715632e+03
2.824869956009342786e+01 -2.244544313611534108e+02 -1.292768960702300092e+03
2.816105971328389757e+01 -2.250181653630691301e+02 -1.293459845391707404e+03
2.802110334358777521e+01 -2.256874605819250519e+02 -1.294207873982427827e+03
2.792752714965586591e+01 -2.263610199898366488e+02 -1.295007870397550732e+03
2.765726229965539318e+01 -2.269520987449808445e+02 -1.295615772483901992e+03
2.738588165672236130e+01 -2.275615810986874408e+02 -1.296106910366735519e+03
2.680256035894899469e+01 -2.281207660513554458e+02 -1.296555237808634502e+03
2.634422662768179180e+01 -2.286666989654852387e+02 -1.296830125724283334e+03
2.594436649633327363e+01 -2.291595042992741469e+02 -1.297070960438169550e+03
2.512415182590701335e+01 -2.297025864254090948e+02 -1.297225370548972023e+03
2.450175199280950977e+01 -2.300984095854059888e+02 -1.297148424350136793e+03
2.406540064957849268e+01 -2.302957541208754151e+02 -1.296880060391842562e+03
2.400617620871960156e+01 -2.302957833706018391e+02 -1.296568810541761650e+03
2.382964463176212888e+01 -2.300386168903815189e+02 -1.295792581759376390e+03
2.344577447287560545e+01 -2.296638063939739993e+02 -1.294620084392444596e+03
2.310260654022528115e+01 -2.291576080849328605e+02 -1.293323039011349920e+03
2.243163864636907334e+01 -2.286250436159930359e+02 -1.291866333317266481e+03
2.148819829928167024e+01 -2.280407882276826967e+02 -1.290537431579170971e+03
2.063403503465786315e+01 -2.276921746673047835e+02 -1.289611221702317380e+03
1.963546391953178727e+01 -2.275819539740033690e+02 -1.288899130844080901e+03
1.867000153203404267e+01 -2.276795084201245345e+02 -1.288476819436657479e+03
1.763477697485573970e+01 -2.279199695480134551e+02 -1.288136673512464768e+03
1.630180265017683894e+01 -2.282400608639533743e+02 -1.287791826458117157e+03
1.516320250855036988e+01 -2.287414289116777297e+02 -1.287665213602192807e+03
1.480682314697442337e+01 -2.292875266895716493e+02 -1.288006625988858787e+03
1.477237407185939588e+01 -2.298000366467345543e+02 -1.288517178067360419e+03
1.496373226388324440e+01 -2.304776830766243734e+02 -1.289381258875365120e+03
1.502939255662217732e+01 -2.311601239345768590e+02 -1.290160780513095006e+03
1.508557663104610214e+01 -2.319271497117602792e+02 -1.291017404701222404e+03
1.467856780079296897e+01 -2.326789402122186345e+02 -1.291839134848391268e+03
1.415133332837066149e+01 -2.332887295205947567e+02 -1.292661527377356606e+03
1.362548235860908363e+01 -2.338791123561755398e+02 -1.293425655051087688e+03
1.316915779254958352e+01 -2.342814886529620537e+02 -1.293892507046166656e+03
1.266806144091519570e+01 -2.345562705206781686e+02 -1.294112806906343849e+03
1.202386415484450310e+01 -2.347145225801559150e+02 -1.293970210646553596e+03
1.120792677011755245e+01 -2.346417655044221533e+02 -1.293305455035892692e+03
9.999653024662222833e+00 -2.344401467279689939e+02 -1.292192205401198407e+03
8.366867387809307388e+00 -2.340286550996212327e+02 -1.290868452507964321e+03
7.183240710596798806e+00 -2.335485620696426565e+02 -1.289515975601229002e+03
6.286468946479509157e+00 -2.328097923667336886e+02 -1.288269409721514421e+03
5.511138690069522283e+00 -2.320800178630549624e+02 -1.287100349371457241e+03
4.290261419892729577e+00 -2.316025092707514261e+02 -1.286156348838399708e+03
3.683030203300184269e+00 -2.315463190233828925e+02 -1.285797094126126694e+03
2.080329625774965052e+00 -2.316277702509124197e+02 -1.285511249484617565e+03
1.323436508038305703e+00 -2.321015670976098306e+02 -1.285817300211292377e+03
6.300718471623341088e-01 -2.327597916689618671e+02 -1.286391670616707415e+03
7.119813742473724005e-02 -2.335923081306510767e+02 -1.287289598713962505e+03
-7.524389962304809387e-01 -2.342757550722798499e+02 -1.288174789978049148e+03
-1.343811310699223327e+00 -2.348686807525998290e+02 -1.288949784463501373e+03
-2.407149360758062073e+00 -2.354703121251392588e+02 -1.289769093494210210e+03
-3.266425664348055591e+00 -2.359989766322005380e+02 -1.290480627806131452e+03
-3.834658876662139448e+00 -2.363540874338053186e+02 -1.290945872888282793e+03
-5.170459559965870255e+00 -2.366592382093871549e+02 -1.291348045507231973e+03
-6.129659780446765183e+00 -2.368202943733956545e+02 -1.291477336065438067e+03
-6.961427780105402974e+00 -2.367578643711995312e+02 -1.291379149782828563e+03
-7.771680240925242344e+00 -2.365336091391987736e+02 -1.290910488952490368e+03
-8.534999163855140125e+00 -2.359119215967165530e+02 -1.289863578483140827e+03
-9.036510880805629142e+00 -2.351696783756744651e+02 -1.288752547474311086e+03
-9.719933698421122870e+00 -2.342618597847146020e+02 -1.287445770270528556e+03
-1.043997771396993102e+01 -2.332872870090214974e+02 -1.286359934319453487e+03
-1.095282850513824968e+01 -2.325822470397904453e+02 -1.285623062513641344e+03
-1.209282771972988968e+01 -2.319433677558253635e+02 -1.285082355071544725e+03
-1.328233878487025521e+01 -2.316291437901398922e+02 -1.284954739060402062e+03
-1.397475038347443643e+01 -2.315650800837840961e+02 -1.284946774555804950e+03
-1.516095772161555288e+01 -2.315831561370351039e+02 -1.285144192214538862e+03
-1.572389569477089566e+01 -2.317571158672659521e+02 -1.285452214589371579e+03
-1.621353274152735224e+01 -2.321514947374321594e+02 -1.285977202111782162e+03
-1.650773078134786687e+01 -2.326249034581880721e+02 -1.286469400797998787e+03
-1.665210359643243265e+01 -2.332057816634023766e+02 -1.287218611515993871e+03
-1.678272124630611728e+01 -2.337687133403792359e+02 -1.287868492100546746e+03
-1.711985622939680951e+01 -2.343323376926718993e+02 -1.288668289514632306e+03
-1.732993721299850876e+01 -2.348386347535102061e+02 -1.289379025653429153e+03
-1.780678465002599609e+01 -2.351888721409848699e+02 -1.289969864405881253e+03
-1.846442723223574234e+01 -2.353917994975230670e+02 -1.290502697048790651e+03
-1.890760681595619275e+01 -2.354278256113542227e+02 -1.290739934762401390e+03
-1.941991775860356739e+01 -2.354164059100837108e+02 -1.290943580539619234e+03
-2.013524015411127976e+01 -2.352593125367594098e+02 -1.290959173868096286e+03
-2.011612810613983271e+01 -2.353166514471463131e+02 -1.290931737415296311e+03
-2.060355438668481298e+01 -2.349371847294841018e+02 -1.290511446826136535e+03
-2.087380916941723541e+01 -2.342417514933225107e+02 -1.289572645731793045e+03
-2.115226659911080986e+01 -2.333814836208367183e+02 -1.288610245166452387e+03
-2.175091279942589750e+01 -2.323078379212611821e+02 -1.287582500521822340e+03
-2.206497173981541238e+01 -2.311229369320816147e+02 -1.286539202836247341e+03
-2.256288426578822026e+01 -2.300773562795616840e+02 -1.285687255236393867e+03
-2.358892747453656824e+01 -2.290468408839313383e+02 -1.285197370486006321e+03
-2.469159449788870830e+01 -2.284050593739455906e+02 -1.285008397188690424e+03
-2.605177065760297950e+01 -2.280657975392533103e+02 -1.285256148814789185e+03
-2.707128535877064479e+01 -2.279426403275604684e+02 -1.285662821803294037e+03
-2.794815014461530467e+01 -2.279957404540695620e+02 -1.286194416651082975e+03
-2.852227243100302445e+01 -2.284258617432707581e+02 -1.286777568215741667e+03
-2.906864135430306106e+01 -2.288402727306819031e+02 -1.287440844959667174e+03
-2.953941380383984239e+01 -2.292775856876637022e+02 -1.287965731160499217e+03
-2.997171139605830348e+01 -2.296239093854070745e+02 -1.288547365771962632e+03
-3.032940643054907781e+01 -2.299017597495643486e+02 -1.289167432400585994e+03
-3.128894218174912822e+01 -2.299046855576989969e+02 -1.289788794321632395e+03
-3.240634838002362272e+01 -2.298655092632736228e+02 -1.290565857177469752e+03
-3.348203371513111648e+01 -2.296339961366102216e+02 -1.291345442713413831e+03
-3.480367483625988001e+01 -2.293189980381208386e+02 -1.292331486983827972e+03
-3.599833045980320634e+01 -2.287422610298921200e+02 -1.292914477949663933e+03
-3.684877390439496736e+01 -2.280508964112433148e+02 -1.293050781112665163e+03
-3.738681077776234218e+01 -2.272998514826975338e+02 -1.292665147488981120e+03
-3.781766584345796645e+01 -2.264291666011751829e+02 -1.292088855608538552e+03
-3.773840353997659491e+01 -2.256545643332766531e+02 -1.291251917401063565e+03
-3.761592439803902010e+01 -2.248384844734223122e+02 -1.290305246624110850e+03
-3.749693033286195742e+01 -2.240779639485106429e+02 -1.289402349433140444e+03
-3.708582161322977555e+01 -2.232731803034426150e+02 -1.288310459906324922e+03
-3.690338148486392100e+01 -2.224808821370449152e+02 -1.287507277502177885e+03
-3.639411077414570883e+01 -2.216711977334639698e+02 -1.286595871093126334e+03
-3.622188184595088245e+01 -2.206692625880525895e+02 -1.285773319891187157e+03
-3.608635453593388576e+01 -2.197118940399395797e+02 -1.285134614558616931e+03
-3.587771024432857558e+01 -2.188147702233312089e+02 -1.284563677625249738e+03
-3.576427978276074526e+01 -2.180726970284573270e+02 -1.283950733948872085e+03
-3.566290182480101834e+01 -2.174711284847502384e+02 -1.283563071466101064e+03
-3.569939193409953049e+01 -2.167976763525709885e+02 -1.283239840770814681e+03
-3.586702584510543801e+01 -2.161883548989212613e+02 -1.283065838123610774e+03
-3.665182240670468872e+01 -2.154541849798497424e+02 -1.283116167553818968e+03
-3.740940504650902909e+01 -2.147347345281517335e+02 -1.283317557240442966e+03
-3.800933302046326645e+01 -2.144401805554314535e+02 -1.283645026595419722e+03
-3.883314856634545009e+01 -2.142466489545091690e+02 -1.284115440379333904e+03
-3.934712199952567602e+01 -2.143049965177842751e+02 -1.284604097844774515e+03
-3.995868825688422277e+01 -2.143617745918492119e+02 -1.285224762010882614e+03
-4.060936918521704087e+01 -2.144232182960228386e+02 -1.285764675981424489e+03
-4.154026501190742948e+01 -2.143544293731813752e+02 -1.286564076738380209e+03
-4.241637317943479246e+01 -2.142104816830441223e+02 -1.287214866462568807e+03
-4.309642233582579962e+01 -2.139774035161138670e+02 -1.287770960674486560e+03
-4.368151016937962794e+01 -2.138051067113639476e+02 -1.288297293441157080e+03
-4.392900119334324671e+01 -2.137546929844530439e+02 -1.288582849122318521e+03
-4.476626674469445533e+01 -2.135621065075681031e+02 -1.289473120036665023e+03
-4.553082105773065535e+01 -2.133853629689557749e+02 -1.290232489865040634e+03
-4.610207527244393333e+01 -2.134726798017996998e+02 -1.290829566981272137e+03
-4.664362393895672909e+01 -2.137400778358748710e+02 -1.291834980974612336e+03
-4.705263385659053910e+01 -2.141454541468456512e+02 -1.292626807942780488e+03
-4.726493295497011360e+01 -2.147567852034081284e+02 -1.293459691006118192e+03
-4.721813157432213615e+01 -2.153911363356201036e+02 -1.294099191494805382e+03
-4.704966256339850617e+01 -2.161399411328179383e+02 -1.294605244319498752e+03
-4.670530211698079626e+01 -2.170111899003788665e+02 -1.294948660508781131e+03
-4.617118096523146420e+01 -2.180588674395849864e+02 -1.295154501794498174e+03
-4.560204885248285933e+01 -2.192412648565853317e+02 -1.295378255200110743e+03
-4.518193521478392682e+01 -2.200646938464680318e+02 -1.295643475071633020e+03
-4.506769637032308395e+01 -2.206323992293084757e+02 -1.296195519201356547e+03
-4.528782540220841923e+01 -2.208718974941859301e+02 -1.296793021437526477e+03
-4.538918929028364602e+01 -2.211203829565219223e+02 -1.297493269464750938e+03
-4.568074457732497962e+01 -2.211250404322408087e+02 -1.298171424779076233e+03
-4.593968648342923444e+01 -2.211106864596775381e+02 -1.298788285294941716e+03
-4.611493842697624501e+01 -2.212209672685727355e+02 -1.299446402564008167e+03
-4.625996489255279442e+01 -2.213465879837054047e+02 -1.300026190177820354e+03
-4.618961328513359632e+01 -2.216255909809830484e+02 -1.300775153354110898e+03
-4.627349044677455225e+01 -2.218503573921654493e+02 -1.301540199807332783e+03
-4.609225841012943903e+01 -2.221174371857962626e+02 -1.302487173107476792e+03
-4.629139400258997483e+01 -2.220778897154238507e+02 -1.302632740869255258e+03
-4.626802573243082151e+01 -2.220386141693292359e+02 -1.302721644829968454e+03
-4.621421714901801892e+01 -2.220889131908255933e+02 -1.302665681006230898e+03
-4.618801022550579916e+01 -2.221108620146924579e+02 -1.302713505697927076e+03
-4.641442532088188244e+01 -2.222048738213900947e+02 -1.302722921444553549e+03
-4.660138662296365197e+01 -2.224393874936968416e+02 -1.303226183382813588e+03
-4.655946718831419417e+01 -2.224116737369517409e+02 -1.303236992734569640e+03
-4.693637728342734050e+01 -2.224604699083869548e+02 -1.303842029656668274e+03
-4.700025012018868864e+01 -2.224071951474712705e+02 -1.304456445752447507e+03
-4.727844222696416665e+01 -2.224061240169686471e+02 -1.304950308137881620e+03
-4.723684441132323997e+01 -2.225713728417572952e+02 -1.305663295838573958e+03
-4.722950055728190222e+01 -2.228686071154086790e+02 -1.306203672027887933e+03
-4.719917303991544344e+01 -2.231309433589953812e+02 -1.306738947444428959e+03
-4.713539338121389477e+01 -2.233532319495682259e+02 -1.307366155690134519e+03
-4.715571391393373091e+01 -2.235551585934857712e+02 -1.308025806982001541e+03
-4.709564804825492246e+01 -2.239022184106194402e+02 -1.308742251391870468e+03
-4.694665686419197215e+01 -2.243196335156733312e+02 -1.309667875431742914e+03
-4.685254094281356885e+01 -2.247102426077064479e+02 -1.310845015843832243e+03
-4.672763102683320113e+01 -2.251274163009805136e+02 -1.311551771426377854e+03
-4.667670815781263371e+01 -2.254217686493166752e+02 -1.312076695022148215e+03
-4.659745807515449911e+01 -2.256539049795028973e+02 -1.312565393461465192e+03
-4.649945436755299255e+01 -2.259241736535580856e+02 -1.313069204887701972e+03
-4.631129647547563621e+01 -2.264502068725242623e+02 -1.313967975907710525e+03
-4.682750626395947080e+01 -2.264911522479514474e+02 -1.315062550957870371e+03
-4.713443775053612939e+01 -2.267455179297442669e+02 -1.316274693788342120e+03
-4.728518925207750812e+01 -2.269909311863555388e+02 -1.317019211202909219e+03
-4.743539135643673177e+01 -2.272085078169759242e+02 -1.317442419825977368e+03
-4.746128535187738606e+01 -2.276873103541899752e+02 -1.318122996372232137e+03
-4.741770057743540434e+01 -2.280159275903579328e+02 -1.318578529277539246e+03
-4.734878060206515471e+01 -2.284844486814116920e+02 -1.319205130704778867e+03
-4.726356171584972543e+01 -2.291006802320982558e+02 -1.319752353698029765e+03
-4.709044322511994807e+01 -2.296789652154945998e+02 -1.320416385018774008e+03
-4.680143487721672813e+01 -2.303242189345635609e+02 -1.320829972003423109e+03
-4.645461832722120477e+01 -2.308609921654217203e+02 -1.321171966112325663e+03
-4.594869438687511121e+01 -2.314583864742968160e+02 -1.321313728895115901e+03
-4.546727413148092722e+01 -2.318589242676238769e+02 -1.321329515315029539e+03
-4.457685896648758472e+01 -2.325292037702608070e+02 -1.321330219508785376e+03
-4.392890806299973150e+01 -2.329875230535308219e+02 -1.321355915907080998e+03
-4.312332708158535155e+01 -2.335635848630617488e+02 -1.321329506996931514e+03
-4.257678814912782883e+01 -2.338989636202848033e+02 -1.321014077713500910e+03
-4.183694719049851329e+01 -2.340485637535121555e+02 -1.320490437479478942e+03
-4.148278971320976183e+01 -2.340885161971937407e+02 -1.319905226826797843e+03
-4.150382533109802097e+01 -2.338607415521099142e+02 -1.319384340012062466e+03
-4.136636205187443949e+01 -2.337033954975395886e+02 -1.318595123946410695e+03
-4.128893262690134947e+01 -2.331301613682931304e+02 -1.317356739579477335e+03
-4.138688275390632754e+01 -2.324763753243060194e+02 -1.316052192998957707e+03
-4.152654584568920626e+01 -2.316918404160489615e+02 -1.314761633789182724e+03
-4.185901385225833593e+01 -2.310085554822674112e+02 -1.313672615930638131e+03
-4.205878107716124958e+01 -2.304620535394572869e+02 -1.312546631845987804e+03
-4.218713794772886416e+01 -2.300070350510832213e+02 -1.311498698470184081e+03
-4.240132331109889918e+01 -2.296193045230661767e+02 -1.310731810010039908e+03
-4.230131732903640085e+01 -2.293716679691226261e+02 -1.309517595637145860e+03
-4.217124396672084430e+01 -2.293512838745059810e+02 -1.308320314248124987e+03
-4.172947301305074319e+01 -2.295068540585210144e+02 -1.306981522832967357e+03
-4.093615837145019754e+01 -2.299315993160894323e+02 -1.305625414702390799e+03
-4.004840568107268695e+01 -2.305103400721554863e+02 -1.304396115779560660e+03
-3.884548405259852899e+01 -2.312500827605484233e+02 -1.303358197622220587e+03
-3.768721360739993287e+01 -2.320944393404548407e+02 -1.303075995168604777e+03
-3.671245799208698912e+01 -2.327783436567183912e+02 -1.303037477842368162e+03
-3.614586019045751897e+01 -2.334312184113724129e+02 -1.303786944817690255e+03
-3.561430620085757681e+01 -2.340812489254151956e+02 -1.305091805168043948e+03
-3.542919450427532269e+01 -2.345818710692752802e+02 -1.306773298132950913e+03
-3.541448078756952356e+01 -2.350433335975207001e+02 -1.308438142374964400e+03
-3.542863453645536964e+01 -2.354332725243561413e+02 -1.309705518799353513e+03
-3.536717959021441260e+01 -2.358961305315155244e+02 -1.310915477139323684e+03
-3.527782748773159227e+01 -2.363757040159812277e+02 -1.312040629607437495e+03
-3.493769529398010576e+01 -2.369771165573037592e+02 -1.313223644530736237e+03
-3.460572606756297631e+01 -2.375651482859804844e+02 -1.314282632880986966e+03
-3.392747697355192571e+01 -2.383685631729283614e+02 -1.315545536402026528e+03
-3.258782060379609646e+01 -2.392035033695243271e+02 -1.316375233214346508e+03
-3.096591427652875694e+01 -2.400754019869568765e+02 -1.316270900387322854e+03
-2.996310162380442677e+01 -2.406345515009446103e+02 -1.315750945376421441e+03
-2.914467860290928769e+01 -2.411597506044081172e+02 -1.314851424247200384e+03
-2.871245788401544274e+01 -2.413415569377304735e+02 -1.313604825490074063e+03
-2.829784823408309791e+01 -2.414094336368288509e+02 -1.312215691954411795e+03
-2.803612282797799793e+01 -2.410516173523568284e+02 -1.310583087221549476e+03
-2.758419395322439271e+01 -2.405781009505663803e+02 -1.309077461192662668e+03
-2.759271388443853112e+01 -2.400132874529332696e+02 -1.307977309749418964e+03
-2.775280560635246019e+01 -2.393795676755248678e+02 -1.306826347442864972e+03
-2.786055719064228953e+01 -2.388474882790206379e+02 -1.305652100924808792e+03
-2.787885624188609057e+01 -2.384748096344734165e+02 -1.304668806601313463e+03
-2.786876101674219086e+01 -2.382117899077699121e+02 -1.303906825870144758e+03
-2.784725438438156431e+01 -2.379837778301895241e+02 -1.303072481317380607e+03
-2.781660860602821828e+01 -2.377550324028901514e+02 -1.302515650521527505e+03
-2.771977736439021811e+01 -2.376296336328510961e+02 -1.302006628421040205e+03
-2.742390935527895834e+01 -2.376258593908534067e+02 -1.301630883067932473e+03
-2.675607854910068539e+01 -2.376586407120802562e+02 -1.300855717102125482e+03
-2.597397373784315988e+01 -2.378478870404270822e+02 -1.300335218599401969e+03
-2.515700044233546606e+01 -2.380188774600533748e+02 -1.299874185888947522e+03
-2.434958564355248001e+01 -2.383209762666069196e+02 -1.299811723748169015e+03
-2.361309645318473116e+01 -2.386953477759047644e+02 -1.300252079057933543e+03
-2.285799944644617909e+01 -2.392851277197114541e+02 -1.301195268007185177e+03
-2.245096873232541412e+01 -2.397743898667023643e+02 -1.302624752978738798e+03
-2.191923751980974799e+01 -2.403044926807394575e+02 -1.304133411697310976e+03
-2.169888695036438975e+01 -2.408037816230776684e+02 -1.305280179037829157e+03
-2.165679088452686329e+01 -2.412227661855710039e+02 -1.306184393194452014e+03
-2.162979967700200490e+01 -2.416508800605367071e+02 -1.307046706196379546e+03
-2.154899888188544566e+01 -2.419813369745539262e+02 -1.307821423048012548e+03
-2.117247252637009325e+01 -2.422791640337500496e+02 -1.308387098559367132e+03
-2.112907237758785328e+01 -2.426145263174843194e+02 -1.309010072500472006e+03
-2.087146829812376581e+01 -2.428735704096224595e+02 -1.309421138844318875e+03
-2.063697305476198807e+01 -2.431413283290175968e+02 -1.309977875920080351e+03
-2.039085417271848399e+01 -2.433010265954029308e+02 -1.310192074677785740e+03
-2.008308597077802204e+01 -2.435221044312990273e+02 -1.310581211592048703e+03
-1.959138305834901672e+01 -2.437776118025072378e+02 -1.311154998018625747e+03
-1.911549897950147425e+01 -2.441135946163749395e+02 -1.311795393486664352e+03
-1.832516346438817578e+01 -2.443424755732458209e+02 -1.312209562797622766e+03
-1.766071090663405840e+01 -2.445021702870459137e+02 -1.312614667804967894e+03
-1.700868652849128893e+01 -2.445220519263906453e+02 -1.313088058975440845e+03
-1.648415519182716338e+01 -2.445234139946794016e+02 -1.313316694522864736e+03
-1.648135536239606580e+01 -2.445294207435553062e+02 -1.313284818710196760e+03
-1.651607799561919165e+01 -2.445328651567204190e+02 -1.313290533516575351e+03
-1.661846442757762787e+01 -2.444908180180708257e+02 -1.313270094504427107e+03
-1.647895573396527169e+01 -2.445550316401689770e+02 -1.313287486082399028e+03
-1.632651958576146711e+01 -2.445969664423320751e+02 -1.313291824763371778e+03
-1.616279683158433755e+01 -2.445780567034437638e+02 -1.313346608946255401e+03
-1.470691119549363890e+01 -2.447402267970124399e+02 -1.313746556564788989e+03
-1.457094995163132722e+01 -2.448892813342275474e+02 -1.314548784615238674e+03
-1.438919684884474037e+01 -2.449919088820699926e+02 -1.315176838996427932e+03
-1.439107582273850738e+01 -2.449652967208769496e+02 -1.315778176474046404e+03
-1.456177251656507821e+01 -2.448387808864202100e+02 -1.316723572430629019e+03
-1.511873098556856831e+01 -2.444946742391188650e+02 -1.317652813600491527e+03
-1.550461778812432811e+01 -2.443009137025468078e+02 -1.318018963518879900e+03
-1.596047254749348809e+01 -2.441883943833651927e+02 -1.318243260183816574e+03
-1.710679801279884060e+01 -2.438626301738232200e+02 -1.318284151837801573e+03
-1.789420264374080460e+01 -2.436281989843016902e+02 -1.318393316655339277e+03
-1.889040877538793239e+01 -2.433409656138049399e+02 -1.318369034819246281e+03
-1.937207125243880768e+01 -2.431554128437964835e+02 -1.318417889692577774e+03
-1.970602763841259986e+01 -2.431235448794158174e+02 -1.318434828154763181e+03
-2.049689181205757649e+01 -2.429185798464012862e+02 -1.318255948964757408e+03
-2.088284793942188600e+01 -2.427711745597376307e+02 -1.318356829401564028e+03
-2.157885980931066428e+01 -2.425580485587491921e+02 -1.318516796539987809e+03
-2.245132434912792263e+01 -2.422436929181839389e+02 -1.318680542192704934e+03
-2.336697253501156268e+01 -2.419258280879493554e+02 -1.318783188859991014e+03
-2.450768045972055376e+01 -2.414877965975688596e+02 -1.318968575000768851e+03
-2.564977803034530979e+01 -2.410621546603628644e+02 -1.319255096627104649e+03
-2.679869450640058659e+01 -2.406253961082101966e+02 -1.319430358952424513e+03
-2.796422503639895041e+01 -2.402005647646443549e+02 -1.319468144439727666e+03
-2.939745404142259844e+01 -2.397249261642412819e+02 -1.319457371884774375e+03
-3.050243373416407877e+01 -2.394077275691305431e+02 -1.319405233435570608e+03
-3.219777239722825612e+01 -2.387770631384554179e+02 -1.319260756295325109e+03
-3.336081371250265448e+01 -2.383832083097313443e+02 -1.319315127476715134e+03
-3.462823138817862656e+01 -2.378531912809521884e+02 -1.319540770684615609e+03
-3.563471616792292451e+01 -2.373775475742613139e+02 -1.319788201364435281e+03
-3.669292180582839791e+01 -2.369356727521425796e+02 -1.320145872219385410e+03
-3.789782713139339165e+01 -2.364362618463835588e+02 -1.320594020619062348e+03
-3.878541006786579004e+01 -2.360562267079223204e+02 -1.321016779419257091e+03
-3.949048828572399117e+01 -2.357959137488327315e+02 -1.320931770720114173e+03
-3.971264143111651634e+01 -2.354620502901162240e+02 -1.320439527527962582e+03
-3.960763384782126906e+01 -2.352460345210787125e+02 -1.319499144253064060e+03
-3.890717605428590531e+01 -2.354345904786989081e+02 -1.318388371805659517e+03
-3.788528420784015083e+01 -2.356602739573358463e+02 -1.316963880510345916e+03
-3.702945294025366962e+01 -2.361381143606797366e+02 -1.316100037355444329e+03
-3.618864838451532506e+01 -2.364682620423539561e+02 -1.315099363503637960e+03
-3.553905156337516047e+01 -2.368291976950901869e+02 -1.314437181687381781e+03
-3.480778869848835910e+01 -2.371529040181108883e+02 -1.313565704704147038e+03
-3.404526631876580467e+01 -2.376871333460286735e+02 -1.312977052525440286e+03
-3.302959618909901707e+01 -2.383127070472037019e+02 -1.312471952326493465e+03
-3.167055942321746187e+01 -2.391861251798986530e+02 -1.311602991811638731e+03
-2.967956182283955258e+01 -2.400817990475499073e+02 -1.310671018920399320e+03
-2.737874618118436132e+01 -2.410310363334487533e+02 -1.309623975506507350e+03
-2.513477972671929450e+01 -2.416129123939047645e+02 -1.309011257947510103e+03
-2.239665379987720684e+01 -2.421150864859426690e+02 -1.308560212394043219e+03
-2.084428158594977987e+01 -2.422007614847170203e+02 -1.308252912849502309e+03
-1.994192350996367935e+01 -2.422626558942870361e+02 -1.308123308272339500e+03
-1.937835375091906798e+01 -2.421864466501965012e+02 -1.307812297664969037e+03
-1.862042177238793528e+01 -2.421598574690183625e+02 -1.307404406524232854e+03
-1.775701499125830907e+01 -2.417595241833835757e+02 -1.306384284097657201e+03
-1.688128582436305436e+01 -2.416406621297416848e+02 -1.305720412996559844e+03
-1.643322624162832568e+01 -2.414546070419827402e+02 -1.304976189745941610e+03
-1.620349646735953542e+01 -2.415027173900106732e+02 -1.304702003047625340e+03
-1.614065521186559948e+01 -2.414346759118436410e+02 -1.304391750235548216e+03
-1.581598222323612646e+01 -2.413740659550684882e+02 -1.303926290914868105e+03
-1.533267348770709049e+01 -2.412799541287253362e+02 -1.303340810619451304e+03
-1.490495015283860170e+01 -2.411543063429955112e+02 -1.302788297618870502e+03
-1.480090565939540426e+01 -2.410192814491222180e+02 -1.302289485749044843e+03
-1.455418493082728304e+01 -2.408316527275983958e+02 -1.301462248521337415e+03
-1.432180505628733869e+01 -2.406687136282463086e+02 -1.300738623535903344e+03
-1.404602922663857356e+01 -2.406373398767285607e+02 -1.300303454137014342e+03
-1.371709943121361874e+01 -2.405509724110206946e+02 -1.299847162307146164e+03
-1.318539154421562642e+01 -2.404913187428483639e+02 -1.299428903346971538e+03
-1.268651168010345742e+01 -2.404418847517552251e+02 -1.299190611382526413e+03
-1.220208836375594075e+01 -2.403608793294305599e+02 -1.298975458766754400e+03
-1.205780615326238348e+01 -2.403442663683673572e+02 -1.298893671400751828e+03
-1.174305764203432290e+01 -2.403040317077368968e+02 -1.298677348653224726e+03
-1.121836217676638370e+01 -2.402109729368857813e+02 -1.298476881509609257e+03
-1.051816491826738087e+01 -2.401254857405208156e+02 -1.298216157245139357e+03
-9.813716425842279989e+00 -2.400385700116418946e+02 -1.297957281770166674e+03
-9.225621649589960782e+00 -2.398836002160509508e+02 -1.297722613218905735e+03
-8.748241729305370029e+00 -2.397198277321376452e+02 -1.297530776377242546e+03
-8.457064593761721483e+00 -2.397473330996149343e+02 -1.297494629608762352e+03
-8.291681950062546491e+00 -2.397121920169205396e+02 -1.297485267712879477e+03
-7.984641015002431175e+00 -2.396441516078955942e+02 -1.297514865618844397e+03
-7.515867781271090564e+00 -2.397571057360236466e+02 -1.297675453017201789e+03
-6.619314110575636789e+00 -2.398505291233676644e+02 -1.297891552552782969e+03
-5.623487403334429757e+00 -2.398617115213391457e+02 -1.298053376626582576e+03
-5.483881936327470896e+00 -2.398373717597349639e+02 -1.298042735475908557e+03
-4.676021689035216866e+00 -2.397603113836148054e+02 -1.298087332264705310e+03
-4.472587937181764062e+00 -2.397072992418716524e+02 -1.298134452359142415e+03
-3.213636189865859194e+00 -2.396644378311627861e+02 -1.298198460410447296e+03
-2.769055603291725731e+00 -2.395958980284259781e+02 -1.298168633184504415e+03
-2.003468104557448726e+00 -2.394825635552450080e+02 -1.298187568552561061e+03
-1.360944511500179033e+00 -2.393504388450882630e+02 -1.298120578130397689e+03
-1.039321391108742887e+00 -2.392835037844876354e+02 -1.298147051703351735e+03
-7.032964669249111012e-01 -2.392781875989376772e+02 -1.298135530312647688e+03
-1.495405223142398654e-01 -2.391539299050822933e+02 -1.298203921406534846e+03
1.194648875580313074e-01 -2.390490704752225497e+02 -1.298151695021585965e+03
8.437885997306509012e-01 -2.388285936621455505e+02 -1.298077359411749285e+03
1.710225511220166084e+00 -2.386756356593591875e+02 -1.298101611956321221e+03
2.404954463917114538e+00 -2.382837174921865824e+02 -1.298032717139676606e+03
2.533770144907236954e+00 -2.380748339651912886e+02 -1.298059773577704163e+03
2.978450386054518617e+00 -2.379931637012385579e+02 -1.298051704246898680e+03
3.027612559571814188e+00 -2.379561267280330412e+02 -1.298056522194416630e+03
2.935476172103179238e+00 -2.379361596806837156e+02 -1.298065496798541290e+03
3.413957997611888118e+00 -2.382634630147209407e+02 -1.298051727726873196e+03
4.959666281914330455e+00 -2.390479498557448323e+02 -1.299503499251626636e+03
5.006447896771973660e+00 -2.389117815455597338e+02 -1.299520212243880451e+03
5.123953693353534788e+00 -2.389370154755283693e+02 -1.299512053306423013e+03
5.224655464384547088e+00 -2.388653215925729683e+02 -1.299503886655186534e+03
6.044682174646560213e+00 -2.386880344946538344e+02 -1.299458559648308437e+03
7.580313337800866691e+00 -2.384430427199542351e+02 -1.299837295218669396e+03
8.896432599991968004e+00 -2.384293635751333511e+02 -1.300616969298733238e+03
9.955411072771482850e+00 -2.384155004896500145e+02 -1.301367353597679539e+03
1.044155092325954826e+01 -2.383999780480611150e+02 -1.301922229501527681e+03
1.073134508823780919e+01 -2.383691297391299884e+02 -1.302180518045271810e+03
1.092728325105693443e+01 -2.384220667988592197e+02 -1.302233132955527935e+03
1.091729328163307855e+01 -2.383280317196077931e+02 -1.302136454899385626e+03
1.092224313938689306e+01 -2.381128964103856163e+02 -1.301548639579094697e+03
1.063186400468797643e+01 -2.380331516916986629e+02 -1.300950759384553066e+03
1.007093436957850940e+01 -2.379319768103499086e+02 -1.300131301882514435e+03
9.715973491889549507e+00 -2.379758031063098827e+02 -1.299892019170165213e+03
9.551991417437541543e+00 -2.380127231556974436e+02 -1.300004298962764096e+03
9.262652985068555722e+00 -2.383509951799047428e+02 -1.300623735236663606e+03
8.979302763924209785e+00 -2.386780591332683628e+02 -1.301534093292332727e+03
9.217440275601987310e+00 -2.389092400656379311e+02 -1.302494429368636020e+03
9.335442995393663068e+00 -2.391394437690426003e+02 -1.303587049195507234e+03
9.891717053416307692e+00 -2.392490748034757928e+02 -1.304723560215679754e+03
9.951282167868519934e+00 -2.393150231517181510e+02 -1.305239226894073681e+03
1.018074472818663168e+01 -2.393518493208969744e+02 -1.305677257353053619e+03
1.036826443237008988e+01 -2.394652371019560917e+02 -1.306176603068300210e+03
1.028457318663668474e+01 -2.396033658147297274e+02 -1.306593614721922449e+03
9.889367131433125735e+00 -2.399804590617008273e+02 -1.307548620086967958e+03
9.590730228427396753e+00 -2.402798953871199501e+02 -1.308411651247422469e+03
9.872748504749466747e+00 -2.407173325345046067e+02 -1.309625542031364148e+03
9.629433610315039971e+00 -2.411015927833479111e+02 -1.310519734871711535e+03
8.941364441820198294e+00 -2.414494410576083112e+02 -1.311015421790844584e+03
8.392784111134574232e+00 -2.416999495428911473e+02 -1.311425769855202816e+03
8.279338964661853595e+00 -2.418491964331411452e+02 -1.311637559770839971e+03
8.160306174343148200e+00 -2.420438762994365902e+02 -1.312142804881966867e+03
8.274509459982361648e+00 -2.420927605013734762e+02 -1.312196653643048421e+03
8.236897141202398132e+00 -2.425467122183853235e+02 -1.312899393189206876e+03
7.983005386426292205e+00 -2.427732655943071904e+02 -1.313300681647482861e+03
7.552710948636352839e+00 -2.429666488933007713e+02 -1.313744291217481077e+03
7.084655874676251130e+00 -2.432868917370554414e+02 -1.314202473120701598e+03
6.426698094141613637e+00 -2.433328788590368958e+02 -1.314327573972562732e+03
5.585611175574278775e+00 -2.434903333615046392e+02 -1.314686047715107406e+03
4.544838168318662497e+00 -2.435140654813528158e+02 -1.315003339329409073e+03
3.664866306923265427e+00 -2.437223998657032382e+02 -1.315434098475697283e+03
2.738142631510186220e+00 -2.438199342502142031e+02 -1.315776519002400846e+03
2.098983953945193548e+00 -2.439524953928537059e+02 -1.316155799370386603e+03
1.509974446776389811e+00 -2.441008765040008370e+02 -1.316502901902866370e+03
1.062852437106542425e+00 -2.441764397904275086e+02 -1.316715262177101749e+03
3.600911795301300344e-01 -2.441899438722961406e+02 -1.316991100157197252e+03
-3.463392874207329442e-01 -2.442894295865648928e+02 -1.317239336424538124e+03
-1.246955740313893557e+00 -2.442715094405192815e+02 -1.317438141461476334e+03
-1.795182838913412127e+00 -2.443620644793695647e+02 -1.317554522911646927e+03
-2.503982329395434192e+00 -2.444015221257773760e+02 -1.317542527919130407e+03
-2.983756713675340677e+00 -2.444531851948180758e+02 -1.317548198783413000e+03
-3.819870929946524996e+00 -2.445137106921965255e+02 -1.317424928635260585e+03
-4.790840354282288160e+00 -2.444721560547592674e+02 -1.317427963924720871e+03
-4.939765649155937410e+00 -2.446401379919844032e+02 -1.317729307679623162e+03
-5.208580093305933190e+00 -2.446883978256955174e+02 -1.318046441458832078e+03
-5.273250122208217761e+00 -2.448238882802763783e+02 -1.318939834876494388e+03
-5.420377607847861157e+00 -2.449196476118667078e+02 -1.320038562475268918e+03
-5.439465720272075089e+00 -2.449374934424261596e+02 -1.320743912881389633e+03
-5.237067158425070090e+00 -2.448812817557009112e+02 -1.321842528700065486e+03
-5.020549513275561537e+00 -2.446072343727198586e+02 -1.322845089543897302e+03
-4.841758157330296797e+00 -2.446306885980919787e+02 -1.323414400423678444e+03
-4.208363119015068321e+00 -2.445122568920522212e+02 -1.323698602656601906e+03
-3.274913689111834003e+00 -2.444505140289272163e+02 -1.324190540669446136e+03
-2.484573101468207312e+00 -2.444432210607196794e+02 -1.324358806569292710e+03
-1.333279786726599525e+00 -2.445745972774379595e+02 -1.324317494122186417e+03
-1.511208545441441231e+00 -2.445138035539648058e+02 -1.324229330425905800e+03
-1.328521021643688016e+00 -2.445748967153357682e+02 -1.324154889560567653e+03
-2.570923850574260427e-01 -2.447535899818545602e+02 -1.323656915235116685e+03
6.527182868657348536e-01 -2.448336579777259487e+02 -1.322814319273400088e+03
1.650697054709091560e+00 -2.448059146025043447e+02 -1.321931408268302675e+03
2.404155635357433596e+00 -2.447487834749460660e+02 -1.321326725034005676e+03
2.884074650789884231e+00 -2.446362009571967917e+02 -1.320802189693046103e+03
3.721030173404329844e+00 -2.445060874185013233e+02 -1.320395704842102759e+03
4.103618279208347985e+00 -2.443786676832031617e+02 -1.319950590385073838e+03
4.406017494568907011e+00 -2.443102265674015996e+02 -1.319912158639500376e+03
4.495873549400847935e+00 -2.443463075193340615e+02 -1.319916025627408999e+03
4.838972683630274219e+00 -2.444024318098523736e+02 -1.319567329632266365e+03
5.283365899807897392e+00 -2.444339254717564245e+02 -1.318647623540993436e+03
5.767385727737469381e+00 -2.443602630001872456e+02 -1.317226303831414270e+03
5.999938688625135796e+00 -2.437355715758465635e+02 -1.315410119886136727e+03
6.501766904081478060e+00 -2.433303298784499020e+02 -1.314311641741639505e+03
6.934551169536341320e+00 -2.429906062072251416e+02 -1.313733421923253900e+03
7.654768433197730815e+00 -2.427719086718865071e+02 -1.313325547107710918e+03
8.793947506328194663e+00 -2.426261545038053669e+02 -1.313382624424813002e+03
9.611242405741229788e+00 -2.426550145096558424e+02 -1.313465294097984497e+03
1.011743854511455254e+01 -2.425216961728335150e+02 -1.313372457349486012e+03
1.126944008699280886e+01 -2.422121483903112846e+02 -1.313118986986444952e+03
1.147728713607792628e+01 -2.421972827095544858e+02 -1.313036905916815613e+03
1.246934737606611066e+01 -2.414873055089068998e+02 -1.312322883294868006e+03
1.291938239351711104e+01 -2.412943176939117222e+02 -1.312162998406987754e+03
1.384526998866866876e+01 -2.407723350263864575e+02 -1.311701609119604200e+03
1.455826386016819640e+01 -2.405023724537203691e+02 -1.311527589052680469e+03
1.471188734410781507e+01 -2.401037474493914488e+02 -1.311129286926363875e+03
1.485140937659137705e+01 -2.400047351520444749e+02 -1.310959895314739015e+03
1.474772094480582041e+01 -2.398193076278509750e+02 -1.310637570738466138e+03
1.459789977208605194e+01 -2.396878343586007531e+02 -1.310177827644317176e+03
1.443552175453172026e+01 -2.394572261349982512e+02 -1.309724961876161387e+03
1.431882381339141830e+01 -2.392286943236794343e+02 -1.309195120442080452e+03
1.431030197044690766e+01 -2.390591413770597455e+02 -1.308865347959362907e+03
1.426864074556294071e+01 -2.388938698161905165e+02 -1.308277252143541546e+03
1.435076279239437724e+01 -2.388015224260327045e+02 -1.307955594870114510e+03
1.445802407870006334e+01 -2.386362294658871974e+02 -1.307737691854495552e+03
1.465285999385443461e+01 -2.384237289146475405e+02 -1.307416517752102436e+03
1.509445683191987087e+01 -2.381189932638258142e+02 -1.307038062017736138e+03
1.556612845816701451e+01 -2.378168033076324832e+02 -1.306649164836928094e+03
1.605662844797700473e+01 -2.375547950481503392e+02 -1.306406421656393604e+03
1.697137356011823783e+01 -2.371771954464288967e+02 -1.306164624494342661e+03
1.723106271874822681e+01 -2.369313738120016808e+02 -1.306024037794729793e+03
1.796825816889491279e+01 -2.365501178771062030e+02 -1.305762537857600137e+03
1.856374153840381069e+01 -2.363254333468100867e+02 -1.305960975662010696e+03
1.911319836414747186e+01 -2.360578544031486388e+02 -1.306076704642515324e+03
1.963469525662065962e+01 -2.359459564838104200e+02 -1.306418685591077519e+03
1.992375210649077388e+01 -2.359020966217367175e+02 -1.306739487648938621e+03
1.995412523377877534e+01 -2.359807611680403738e+02 -1.307263159691761757e+03
1.995204117227419971e+01 -2.362356600517769323e+02 -1.308149245046167607e+03
2.000219422433022487e+01 -2.365379123465923215e+02 -1.308781402118052483e+03
1.974276142168218939e+01 -2.368624723083019319e+02 -1.309222692341250649e+03
1.923990624111700498e+01 -2.372099772403703355e+02 -1.309556459739761067e+03
1.873479436748858262e+01 -2.376465642468997999e+02 -1.309875835177492718e+03
1.820584641833329442e+01 -2.381117089688630699e+02 -1.310108196036852405e+03
1.747690927720628196e+01 -2.386313440265127781e+02 -1.310434196486704423e+03
1.678771649756882312e+01 -2.392174830450271656e+02 -1.310978823749328740e+03
1.638164787356075891e+01 -2.395863238074441881e+02 -1.311355775359869995e+03
1.587241968860202235e+01 -2.401373474985212795e+02 -1.311874509482645408e+03
1.550330442549400090e+01 -2.405006233484059237e+02 -1.312257431241702761e+03
1.519518595197686039e+01 -2.407568280027474827e+02 -1.312455248872370930e+03
1.483217689062569633e+01 -2.410644734647393079e+02 -1.312775314831136029e+03
1.451845805946246060e+01 -2.414569314771892152e+02 -1.313151934562666156e+03
1.403163602897834039e+01 -2.417451027574545321e+02 -1.313565157772334032e+03
1.381748915000800793e+01 -2.421766543880592621e+02 -1.314341237621988284e+03
1.374471369456331615e+01 -2.424653819662348440e+02 -1.315158277638679010e+03
1.360574915510127170e+01 -2.426766473105195132e+02 -1.316236537507639468e+03
1.341995754872546343e+01 -2.427342629377710921e+02 -1.316897136137588859e+03
1.334091550253393166e+01 -2.427435159037646599e+02 -1.317621559866123107e+03
1.339761346633067518e+01 -2.423568018149671843e+02 -1.318850788676720640e+03
1.320189453692321280e+01 -2.417853770959709721e+02 -1.320263745241434208e+03
1.321915596525582970e+01 -2.416830014628586980e+02 -1.320662229209637189e+03
1.327144896328764645e+01 -2.416521446295022599e+02 -1.320679022139799372e+03
1.375983598716662470e+01 -2.415176760016170761e+02 -1.320548703116202205e+03
1.452153030053902683e+01 -2.412442541731201118e+02 -1.320568760862623776e+03
1.521003582013641164e+01 -2.409154620258110242e+02 -1.320925752701247347e+03
1.590533406680766149e+01 -2.404817160571966781e+02 -1.321287494850273788e+03
1.657562529017840802e+01 -2.401509982187340313e+02 -1.321485241406025580e+03
1.720679372302042509e+01 -2.399363936015542436e+02 -1.321581222012523767e+03
1.762390419598984437e+01 -2.397107411864192841e+02 -1.321675964493455467e+03
1.808005602681155466e+01 -2.395091058641312713e+02 -1.321750335369519462e+03
1.859711396949823836e+01 -2.393153355044955504e+02 -1.321795333894277974e+03
1.909157985183983186e+01 -2.390216435108733037e+02 -1.321924625508406734e+03
1.973270880996879839e+01 -2.386628278426785528e+02 -1.322190161051651103e+03
1.988363095056257634e+01 -2.385058618122835696e+02 -1.322395999699928325e+03
